-2.405595034360885620e-02 -1.660070009529590607e-02 7.867813110351562500e-05
1.468025241047143936e-02 -4.495769366621971130e-02 -4.870474338531494141e-03
4.173511639237403870e-02 -1.916220178827643394e-03 1.951301097869873047e-02
-2.808132953941822052e-02 -5.337378010153770447e-02 2.838194370269775391e-03
3.384526446461677551e-02 1.072189956903457642e-02 7.448256015777587891e-03
3.553663194179534912e-02 4.440767224878072739e-03 9.490728378295898438e-03
1.858442835509777069e-02 1.285652630031108856e-02 -3.091454505920410156e-03
-2.646736800670623779e-02 -2.366281114518642426e-02 1.747369766235351562e-03
1.584339071996510029e-03 -7.540486752986907959e-03 -3.476172685623168945e-02
3.903174772858619690e-02 -1.145847514271736145e-02 1.483887434005737305e-02
2.568733505904674530e-02 -1.350246183574199677e-02 4.798769950866699219e-04
-1.461017038673162460e-02 -2.591842552646994591e-03 -4.258930683135986328e-03
1.313243247568607330e-02 5.112063139677047729e-03 -5.225002765655517578e-03
1.468025241047143936e-02 -3.494317457079887390e-02 -4.870474338531494141e-03
1.858442835509777069e-02 3.835666179656982422e-02 -3.091454505920410156e-03
-3.472651541233062744e-02 -4.923725128173828125e-02 9.325146675109863281e-03
4.272626712918281555e-02 4.244145750999450684e-02 2.226650714874267578e-02
1.390568166971206665e-02 2.513551153242588043e-02 -5.067467689514160156e-03
2.488886006176471710e-02 -4.378575831651687622e-02 -4.160404205322265625e-05
2.330594696104526520e-02 -4.139884561300277710e-02 -8.220672607421875000e-04
-2.008043788373470306e-02 -2.736189030110836029e-02 -2.336978912353515625e-03
2.330594696104526520e-02 4.626335203647613525e-02 -8.220672607421875000e-04
-4.532032087445259094e-02 4.492882266640663147e-02 3.434664011001586914e-02
-1.150125823915004730e-02 -2.952707372605800629e-02 -5.323410034179687500e-03
-1.773062162101268768e-02 3.525975719094276428e-02 -3.190577030181884766e-03
-4.562432877719402313e-03 -1.812213333323597908e-03 -6.364285945892333984e-03
2.252078242599964142e-02 -5.921480059623718262e-02 -1.081764698028564453e-03
1.390568166971206665e-02 2.205517701804637909e-02 -5.067467689514160156e-03
-3.908756375312805176e-02 -2.981173060834407806e-02 1.538747549057006836e-02
-1.539007294923067093e-02 2.904070168733596802e-02 -3.962576389312744141e-03
-2.889058180153369904e-02 3.174915537238121033e-02 3.385126590728759766e-03
-7.641495205461978912e-03 5.200374126434326172e-02 -6.011188030242919922e-03
1.313164178282022476e-02 -4.569638520479202271e-02 -5.264341831207275391e-03
2.974048815667629242e-02 2.395628392696380615e-02 3.912806510925292969e-03
4.174085706472396851e-02 -2.761673554778099060e-02 1.959872245788574219e-02
1.235470408573746681e-04 4.928261623717844486e-04 -3.469091653823852539e-02
-4.001789540052413940e-02 3.809484839439392090e-02 1.729428768157958984e-02
1.936816424131393433e-02 -9.558900259435176849e-03 -2.734303474426269531e-03
1.545725762844085693e-02 -2.031655050814151764e-02 -4.594445228576660156e-03
1.858442835509777069e-02 -5.689023993909358978e-03 -3.091454505920410156e-03
3.044941462576389313e-03 -8.270787075161933899e-03 -3.476172685623168945e-02
-2.727259136736392975e-02 4.104851186275482178e-02 2.272069454193115234e-03
3.726244717836380005e-02 -5.897068604826927185e-02 1.192301511764526367e-02
-3.135044500231742859e-02 -2.381618320941925049e-02 5.440235137939453125e-03
-1.305377483367919922e-02 5.519314482808113098e-02 -4.811346530914306641e-03
3.765039611607789993e-03 4.928261623717844486e-04 -3.730022907257080078e-02
-2.325578592717647552e-02 4.862057045102119446e-02 -4.621148109436035156e-04
-3.730356693267822266e-02 5.366608873009681702e-02 1.250809431076049805e-02
2.172729000449180603e-02 3.070725128054618835e-02 -1.600444316864013672e-03
1.313203759491443634e-02 -4.896099679172039032e-03 -5.244672298431396484e-03
3.056293725967407227e-02 5.453399196267127991e-02 4.726469516754150391e-03
3.302319347858428955e-02 8.352539502084255219e-03 6.791055202484130859e-03
8.502531796693801880e-03 -5.869615077972412109e-02 -6.109356880187988281e-03
-2.485851943492889404e-02 2.538022212684154510e-02 6.405115127563476562e-04
2.488886006176471710e-02 -5.699165537953376770e-02 -4.160404205322265625e-05
-3.908756375312805176e-02 -3.619163855910301208e-02 1.538747549057006836e-02
8.163676597177982330e-03 6.341125350445508957e-03 -3.421217203140258789e-02
1.081585697829723358e-02 3.741889819502830505e-02 -5.657672882080078125e-03
2.330594696104526520e-02 -1.269529294222593307e-02 -8.220672607421875000e-04
-3.643877431750297546e-02 -4.386747628450393677e-02 1.140159368515014648e-02
2.973852865397930145e-02 -5.190524831414222717e-02 3.872156143188476562e-03
-3.472779318690299988e-02 -2.003142051398754120e-02 9.345889091491699219e-03
-3.908900544047355652e-02 3.398852422833442688e-02 1.540857553482055664e-02
8.502531796693801880e-03 -3.947895020246505737e-02 -6.109356880187988281e-03
-2.405595034360885620e-02 -4.301796853542327881e-02 7.867813110351562500e-05
3.056596592068672180e-02 1.850843057036399841e-02 4.787564277648925781e-03
-4.001641646027565002e-02 -5.070810392498970032e-02 1.727306842803955078e-02
1.081522554159164429e-02 -1.489198580384254456e-02 -5.696952342987060547e-03
3.640082851052284241e-02 3.847444802522659302e-02 1.075637340545654297e-02
-3.024006728082895279e-03 4.119987785816192627e-02 -6.579875946044921875e-03
-1.383159868419170380e-02 3.903266787528991699e-02 -4.535317420959472656e-03
3.138975799083709717e-02 1.304247602820396423e-02 5.583226680755615234e-03
1.158788893371820450e-02 3.589000552892684937e-02 -5.500435829162597656e-03
-8.412024937570095062e-03 -3.872367739677429199e-02 -5.913019180297851562e-03
-1.773128658533096313e-02 -5.359092727303504944e-02 -3.170728683471679688e-03
-1.694974116981029510e-02 -4.584238305687904358e-02 -3.448128700256347656e-03
-2.727359347045421600e-02 3.169059380888938904e-02 2.292275428771972656e-03
4.271593317389488220e-02 1.299328054301440716e-03 2.211529016494750977e-02
-1.935788244009017944e-02 -6.078256666660308838e-02 -9.219646453857421875e-04
-7.641179487109184265e-03 3.047576174139976501e-02 -6.030857563018798828e-03
-3.909044712781906128e-02 4.435779899358749390e-02 1.542967557907104492e-02
-1.695037633180618286e-02 -5.665589123964309692e-02 -3.428339958190917969e-03
1.390568166971206665e-02 1.820475608110427856e-02 -5.067467689514160156e-03
-3.023849800229072571e-03 4.427061975002288818e-02 -6.599426269531250000e-03
-1.072561554610729218e-02 -2.951268851757049561e-02 -5.598723888397216797e-03
-2.646639384329319000e-02 2.308924868702888489e-02 1.727163791656494141e-03
4.174085706472396851e-02 4.948377981781959534e-02 1.959872245788574219e-02
-2.970026805996894836e-02 2.239205129444599152e-02 3.912806510925292969e-03
-8.412024937570095062e-03 -3.795472905039787292e-02 -5.913019180297851562e-03
8.502531796693801880e-03 -4.562845826148986816e-02 -6.109356880187988281e-03
-1.773062162101268768e-02 5.071172490715980530e-02 -3.190577030181884766e-03
-1.773195154964923859e-02 -5.822870135307312012e-02 -3.150880336761474609e-03
-1.539998594671487808e-02 -5.972432345151901245e-02 -3.626286983489990234e-03
2.313952660188078880e-03 -6.803310941904783249e-03 -3.527486324310302734e-02
-3.558114171028137207e-02 -2.955585904419422150e-02 1.036155223846435547e-02
3.641063719987869263e-02 -5.649565905332565308e-02 1.092272996902465820e-02
2.813376113772392273e-02 -5.963379889726638794e-02 2.979874610900878906e-03
-2.325578592717647552e-02 5.926603451371192932e-03 -4.621148109436035156e-04
4.654891323298215866e-03 -3.481852635741233826e-02 -6.893098354339599609e-03
2.892412245273590088e-02 -1.591104269027709961e-02 3.182411193847656250e-03
3.056596592068672180e-02 -5.773471202701330185e-03 4.787564277648925781e-03
-4.094813019037246704e-02 -3.000215440988540649e-02 1.912784576416015625e-02
-4.094813019037246704e-02 -1.956966146826744080e-02 1.912784576416015625e-02
-3.558114171028137207e-02 5.268264934420585632e-02 1.036155223846435547e-02
1.701880432665348053e-02 1.669901236891746521e-02 -3.843903541564941406e-03
2.973852865397930145e-02 -4.408463463187217712e-02 3.872156143188476562e-03
-3.793350886553525925e-03 9.711722843348979950e-03 -6.442725658416748047e-03
-2.166233398020267487e-02 3.613772615790367126e-02 -1.480817794799804688e-03
-3.135159611701965332e-02 2.401849627494812012e-02 5.460679531097412109e-03
-2.166153304278850555e-02 -4.212460666894912720e-02 -1.500785350799560547e-03
3.384639322757720947e-02 3.196800127625465393e-02 7.468819618225097656e-03
1.584339071996510029e-03 -5.938907340168952942e-02 -6.834387779235839844e-03
-3.134814649820327759e-02 -5.439465492963790894e-02 5.399405956268310547e-03
-3.643877431750297546e-02 -5.020466446876525879e-02 1.140159368515014648e-02
-2.007969468832015991e-02 3.066772967576980591e-02 -2.356827259063720703e-03
-2.008043788373470306e-02 -3.277808427810668945e-02 -2.336978912353515625e-03
5.221310071647167206e-03 -2.416750648990273476e-03 -3.693151473999023438e-02
9.276481345295906067e-03 -5.950587987899780273e-02 -5.716621875762939453e-03
-4.391443729400634766e-02 1.674238964915275574e-02 2.657604217529296875e-02
1.004395820200443268e-02 -2.104074880480766296e-02 -5.834519863128662109e-03
2.093988656997680664e-02 -9.572057984769344330e-03 -1.978874206542968750e-03
3.138871863484382629e-02 2.402259968221187592e-02 5.562782287597656250e-03
3.220509737730026245e-02 2.718784846365451813e-02 6.176292896270751953e-03
3.553901985287666321e-02 -1.687933504581451416e-02 9.532153606414794922e-03
1.467980351299047470e-02 5.885076243430376053e-03 -4.890203475952148438e-03
-6.871229968965053558e-03 -6.425366736948490143e-03 -6.109356880187988281e-03
-2.245794236660003662e-02 2.065732143819332123e-02 -9.819269180297851562e-04
1.235997583717107773e-02 2.050472237169742584e-02 -5.362749099731445312e-03
2.974146977066993713e-02 5.602493509650230408e-02 3.933131694793701172e-03
-1.773128658533096313e-02 -1.882280036807060242e-02 -3.170728683471679688e-03
-2.166553959250450134e-02 5.706753581762313843e-02 -1.401066780090332031e-03
-1.227669604122638702e-02 -2.587403869256377220e-03 -5.087196826934814453e-03
-1.227669604122638702e-02 2.436460927128791809e-02 -5.087196826934814453e-03
-3.730219602584838867e-02 -1.855363696813583374e-02 1.248717308044433594e-02
3.302319347858428955e-02 1.857016794383525848e-02 6.791055202484130859e-03
-1.383159868419170380e-02 3.132470324635505676e-02 -4.535317420959472656e-03
-4.391608387231826782e-02 -9.257264435291290283e-03 2.659797668457031250e-02
1.701933145523071289e-02 3.753680363297462463e-02 -3.824174404144287109e-03
-1.539065595716238022e-02 -1.185262482613325119e-02 -3.942787647247314453e-03
3.139079734683036804e-02 -2.068544924259185791e-02 5.603671073913574219e-03
-3.793167881667613983e-03 -3.348250174894928932e-03 -6.462275981903076172e-03
-7.194402860477566719e-04 -5.326202511787414551e-02 -6.677806377410888672e-03
-9.182448498904705048e-03 -2.796225622296333313e-02 -5.834519863128662109e-03
1.545773167163133621e-02 8.200266398489475250e-03 -4.574775695800781250e-03
-1.539007294923067093e-02 3.058382868766784668e-02 -3.962576389312744141e-03
3.384074568748474121e-02 -5.772605538368225098e-02 7.366001605987548828e-03
-2.888952195644378662e-02 -4.092036932706832886e-02 3.364861011505126953e-03
-1.072519365698099136e-02 3.280534967780113220e-02 -5.618393421173095703e-03
-9.953479282557964325e-03 -3.719738125801086426e-02 -5.736291408538818359e-03
4.272184148430824280e-02 2.227150462567806244e-02 2.220171689987182617e-02
2.976794540882110596e-02 5.999154597520828247e-02 4.482090473175048828e-03
8.167272899299860001e-04 -5.631044507026672363e-02 -6.912708282470703125e-03
-1.227764692157506943e-02 -4.109312966465950012e-02 -5.047798156738281250e-03
-6.871519610285758972e-03 4.354083165526390076e-02 -6.089687347412109375e-03
-2.255818340927362442e-03 5.101014859974384308e-03 -6.599426269531250000e-03
-4.001641646027565002e-02 -5.710822343826293945e-02 1.727306842803955078e-02
-1.072561554610729218e-02 -3.566766530275344849e-02 -5.598723888397216797e-03
-3.135044500231742859e-02 -1.675872877240180969e-02 5.440235137939453125e-03
-1.461017038673162460e-02 -1.724401861429214478e-02 -4.258930683135986328e-03
4.079203307628631592e-02 -5.108272656798362732e-03 1.737934350967407227e-02
-2.007969468832015991e-02 1.674085110425949097e-02 -2.356827259063720703e-03
2.330594696104526520e-02 -2.829455188475549221e-04 -8.220672607421875000e-04
-9.182448498904705048e-03 2.740979567170143127e-02 -5.834519863128662109e-03
-3.644011542201042175e-02 1.554417423903942108e-02 1.142245531082153320e-02
-2.325578592717647552e-02 3.930552303791046143e-02 -4.621148109436035156e-04
-2.325578592717647552e-02 5.560684949159622192e-02 -4.621148109436035156e-04
3.220616653561592102e-02 2.247772924602031708e-02 6.196737289428710938e-03
-4.391279444098472595e-02 -5.069144442677497864e-02 2.655410766601562500e-02
1.390483696013689041e-02 -3.877875953912734985e-02 -5.106866359710693359e-03
-2.405683510005474091e-02 4.711314663290977478e-02 9.870529174804687500e-05
2.892507240176200867e-02 4.501916095614433289e-02 3.202676773071289062e-03
-1.695037633180618286e-02 -5.685413256287574768e-03 -3.428339958190917969e-03
-9.182448498904705048e-03 -4.890567623078823090e-03 -5.834519863128662109e-03
-2.245794236660003662e-02 -5.767398700118064880e-02 -9.819269180297851562e-04
-7.641495205461978912e-03 5.584783852100372314e-02 -6.011188030242919922e-03
4.467994719743728638e-02 -5.073403194546699524e-02 2.705866098403930664e-02
-1.150081027299165726e-02 -2.182889916002750397e-02 -5.343079566955566406e-03
1.390483696013689041e-02 -4.416897892951965332e-02 -5.106866359710693359e-03
3.468077629804611206e-02 -3.890769556164741516e-02 8.313059806823730469e-03
1.858442835509777069e-02 5.149309337139129639e-02 -3.091454505920410156e-03
-1.072519365698099136e-02 -1.874081976711750031e-02 -5.618393421173095703e-03
-2.405683510005474091e-02 2.069496363401412964e-02 9.870529174804687500e-05
1.701880432665348053e-02 1.592729054391384125e-02 -3.843903541564941406e-03
3.553305938839912415e-02 -5.950956046581268311e-02 9.428679943084716797e-03
-2.166153304278850555e-02 -4.156347829848527908e-03 -1.500785350799560547e-03
8.167272899299860001e-04 -2.330313809216022491e-02 -6.912708282470703125e-03
4.275582358241081238e-02 -5.117335170507431030e-02 2.269905805587768555e-02
1.545773167163133621e-02 4.596671834588050842e-02 -4.574775695800781250e-03
3.038468770682811737e-03 2.375889942049980164e-02 -3.717738389968872070e-02
3.639960289001464844e-02 2.502176165580749512e-02 1.073557138442993164e-02
1.701880432665348053e-02 2.287279814481735229e-02 -3.843903541564941406e-03
-3.816596791148185730e-02 -3.528244793415069580e-02 1.353472471237182617e-02
-6.871229968965053558e-03 -2.333650365471839905e-02 -6.109356880187988281e-03
-1.305427588522434235e-02 -2.647304348647594452e-02 -4.791676998138427734e-03
3.990728780627250671e-02 -4.262049496173858643e-02 1.606404781341552734e-02
-1.227717194706201553e-02 -1.182851660996675491e-02 -5.067467689514160156e-03
3.038515802472829819e-03 2.812218293547630310e-02 -3.715980052947998047e-02
-3.792800009250640869e-03 5.195973068475723267e-02 -6.501495838165283203e-03
-8.412024937570095062e-03 -5.025794729590415955e-02 -5.913019180297851562e-03
-3.219116851687431335e-02 5.233430862426757812e-02 6.422042846679687500e-03
2.093988656997680664e-02 3.533281013369560242e-02 -1.978874206542968750e-03
2.330594696104526520e-02 1.368094515055418015e-02 -8.220672607421875000e-04
-3.816596791148185730e-02 -9.842253290116786957e-03 1.353472471237182617e-02
8.159185759723186493e-03 1.223364612087607384e-03 -3.458458185195922852e-02
3.056091628968715668e-02 -5.667717754840850830e-02 4.685699939727783203e-03
-2.970026805996894836e-02 -1.071404200047254562e-03 3.912806510925292969e-03
4.467994719743728638e-02 -4.829466342926025391e-02 2.705866098403930664e-02
3.220616653561592102e-02 9.914926253259181976e-03 6.196737289428710938e-03
1.858384534716606140e-02 -1.341586001217365265e-02 -3.111243247985839844e-03
3.468309342861175537e-02 4.226030036807060242e-02 8.354246616363525391e-03
-3.303229063749313354e-02 -4.277796670794487000e-02 7.366001605987548828e-03
1.081585697829723358e-02 3.049525991082191467e-02 -5.657672882080078125e-03
4.173655435442924500e-02 3.181155025959014893e-02 1.953446865081787109e-02
-1.461017038673162460e-02 2.517017535865306854e-02 -4.258930683135986328e-03
8.167272899299860001e-04 -2.714119851589202881e-02 -6.912708282470703125e-03
-3.644145652651786804e-02 -5.844807252287864685e-03 1.144331693649291992e-02
-7.641495205461978912e-03 1.048748008906841278e-02 -6.011188030242919922e-03
-5.331489257514476776e-03 -4.791796579957008362e-02 -6.305456161499023438e-03
-6.101228296756744385e-03 -9.498410858213901520e-03 -6.207406520843505859e-03
-3.816596791148185730e-02 -1.779231615364551544e-02 1.353472471237182617e-02
-3.219116851687431335e-02 5.861812084913253784e-02 6.422042846679687500e-03
-2.166153304278850555e-02 -3.902515396475791931e-02 -1.500785350799560547e-03
-3.792983945459127426e-03 -3.407567739486694336e-02 -6.481885910034179688e-03
-3.024006728082895279e-03 -2.101278863847255707e-02 -6.579875946044921875e-03
-5.331489257514476776e-03 -2.179150842130184174e-02 -6.305456161499023438e-03
-2.008118480443954468e-02 4.924025386571884155e-02 -2.317070960998535156e-03
-1.383159868419170380e-02 3.286629542708396912e-02 -4.535317420959472656e-03
-6.871229968965053558e-03 3.585247695446014404e-02 -6.109356880187988281e-03
4.468462616205215454e-02 3.302134573459625244e-02 2.712452411651611328e-02
2.324037253856658936e-03 -1.430113799870014191e-02 -2.774769067764282227e-02
-7.141005480661988258e-04 -1.712854579091072083e-02 -8.006334304809570312e-03
3.474821150302886963e-02 6.050364300608634949e-02 9.511470794677734375e-03
-2.970026805996894836e-02 -2.062428556382656097e-02 3.912806510925292969e-03
-6.101490929722785950e-03 1.893881522119045258e-02 -6.187796592712402344e-03
-1.929663494229316711e-02 -1.729467138648033142e-02 -2.615153789520263672e-03
3.119143191725015640e-03 5.574578419327735901e-02 -7.069170475006103516e-03
4.272331297397613525e-02 2.711216546595096588e-02 2.222329378128051758e-02
1.235997583717107773e-02 2.589254081249237061e-02 -5.362749099731445312e-03
8.502531796693801880e-03 -5.254664644598960876e-02 -6.109356880187988281e-03
-3.387737274169921875e-02 -4.206123203039169312e-02 8.333683013916015625e-03
-9.953479282557964325e-03 1.510739512741565704e-02 -5.736291408538818359e-03
1.390568166971206665e-02 2.975601516664028168e-02 -5.067467689514160156e-03
-6.871229968965053558e-03 3.738984838128089905e-02 -6.109356880187988281e-03
-2.646736800670623779e-02 -8.857741951942443848e-03 1.747369766235351562e-03
-8.412024937570095062e-03 -3.257207199931144714e-02 -5.913019180297851562e-03
2.892412245273590088e-02 -5.340560153126716614e-02 3.182411193847656250e-03
-4.094813019037246704e-02 -1.635966263711452484e-02 1.912784576416015625e-02
2.330594696104526520e-02 3.229946643114089966e-02 -8.220672607421875000e-04
-1.150081027299165726e-02 -7.974035106599330902e-03 -5.343079566955566406e-03
3.469238057732582092e-02 5.961433053016662598e-02 8.519291877746582031e-03
-4.391608387231826782e-02 -5.194726865738630295e-03 2.659797668457031250e-02
-1.227669604122638702e-02 2.128437906503677368e-02 -5.087196826934814453e-03
2.488886006176471710e-02 -1.115943398326635361e-02 -4.160404205322265625e-05
-2.970026805996894836e-02 4.928261623717844486e-04 3.912806510925292969e-03
-3.558114171028137207e-02 -2.797435037791728973e-02 1.036155223846435547e-02
4.468462616205215454e-02 4.034026712179183960e-02 2.712452411651611328e-02
-3.303350508213043213e-02 -1.052194181829690933e-02 7.386565208435058594e-03
-4.094965010881423950e-02 1.975350081920623779e-02 1.914924383163452148e-02
2.730108052492141724e-02 -4.626488313078880310e-02 1.807868480682373047e-03
-4.095420241355895996e-02 5.587319657206535339e-02 1.921337842941284180e-02
1.158686168491840363e-02 -3.413129225373268127e-02 -5.559384822845458984e-03
2.093988656997680664e-02 5.778524279594421387e-02 -1.978874206542968750e-03
-2.255818340927362442e-03 -3.790874779224395752e-02 -6.599426269531250000e-03
-2.166153304278850555e-02 1.521521061658859253e-02 -1.500785350799560547e-03
3.764898516237735748e-03 3.174751251935958862e-02 -3.733533620834350586e-02
8.555534295737743378e-04 1.652611047029495239e-02 -3.589290380477905273e-02
3.119352739304304123e-03 -2.329988777637481689e-02 -6.990969181060791016e-03
-1.487471978180110455e-03 -2.484961599111557007e-02 -6.658196449279785156e-03
-2.571180835366249084e-02 6.054434925317764282e-02 2.251863479614257812e-03
-3.792983945459127426e-03 3.198857232928276062e-02 -6.481885910034179688e-03
-2.405683510005474091e-02 3.390405327081680298e-02 9.870529174804687500e-05
2.316638827323913574e-03 -9.759371168911457062e-03 -3.326994180679321289e-02
-2.166153304278850555e-02 -1.035524718463420868e-02 -1.500785350799560547e-03
2.172729000449180603e-02 -3.591943159699440002e-02 -1.600444316864013672e-03
-7.641495205461978912e-03 -1.872766390442848206e-02 -6.011188030242919922e-03
-3.793167881667613983e-03 -1.487147901207208633e-02 -6.462275981903076172e-03
2.488886006176471710e-02 -3.291031718254089355e-02 -4.160404205322265625e-05
-3.219116851687431335e-02 5.991164594888687134e-03 6.422042846679687500e-03
3.139079734683036804e-02 -7.350979372859001160e-03 5.603671073913574219e-03
3.990864753723144531e-02 -1.148352120071649551e-02 1.608520746231079102e-02
-1.476595527492463589e-03 -1.481184829026460648e-02 -8.687734603881835938e-03
-3.219116851687431335e-02 2.641356736421585083e-02 6.422042846679687500e-03
7.620651740580797195e-05 -1.534256525337696075e-02 -1.702320575714111328e-02
2.093988656997680664e-02 5.081724375486373901e-02 -1.978874206542968750e-03
3.302429243922233582e-02 -7.367162033915519714e-03 6.811559200286865234e-03
3.727125748991966248e-02 1.238846685737371445e-02 1.206916570663452148e-02
1.390525884926319122e-02 6.653286051005125046e-03 -5.087196826934814453e-03
1.004424784332513809e-02 4.202328994870185852e-02 -5.814850330352783203e-03
-4.532032087445259094e-02 4.575171321630477905e-02 3.434664011001586914e-02
-3.729944676160812378e-02 -4.950061067938804626e-02 1.244533061981201172e-02
-9.182448498904705048e-03 3.663847222924232483e-02 -5.834519863128662109e-03
-2.808132953941822052e-02 -1.434000860899686813e-02 2.838194370269775391e-03
-1.773062162101268768e-02 5.302952229976654053e-02 -3.190577030181884766e-03
3.904369845986366272e-02 5.947139114141464233e-02 1.502865552902221680e-02
2.330594696104526520e-02 -4.161803517490625381e-03 -8.220672607421875000e-04
-7.641495205461978912e-03 -4.256106913089752197e-02 -6.011188030242919922e-03
-2.485851943492889404e-02 2.615795470774173737e-02 6.405115127563476562e-04
4.275582358241081238e-02 -4.955878481268882751e-02 2.269905805587768555e-02
3.467961773276329041e-02 -1.920674368739128113e-02 8.292436599731445312e-03
-2.405683510005474091e-02 4.633613303303718567e-02 9.870529174804687500e-05
1.780110411345958710e-02 2.037280006334185600e-03 -3.467917442321777344e-03
-1.616956107318401337e-02 2.828153967857360840e-02 -3.705441951751708984e-03
-7.641495205461978912e-03 1.663803681731224060e-02 -6.011188030242919922e-03
-1.487576751969754696e-03 7.404637057334184647e-03 -6.638646125793457031e-03
-1.773062162101268768e-02 5.534731596708297729e-02 -3.190577030181884766e-03
-5.331489257514476776e-03 -2.793891169130802155e-02 -6.305456161499023438e-03
2.015350945293903351e-02 -4.593010619282722473e-02 -2.356827259063720703e-03
-3.052483871579170227e-02 3.573460504412651062e-02 4.685699939727783203e-03
6.682367995381355286e-03 2.598297037184238434e-02 -3.626298904418945312e-02
3.886781167238950729e-03 -2.406655624508857727e-02 -7.010519504547119141e-03
3.787482623010873795e-03 -1.199165545403957367e-02 -3.171628713607788086e-02
8.437879732809960842e-04 -1.357764471322298050e-02 -2.711105346679687500e-02
-2.808132953941822052e-02 3.640389814972877502e-02 2.838194370269775391e-03
5.221074912697076797e-03 2.158589288592338562e-02 -3.696662187576293945e-02
-1.150081027299165726e-02 5.591228604316711426e-02 -5.343079566955566406e-03
1.081522554159164429e-02 -2.335363253951072693e-02 -5.696952342987060547e-03
-7.194402860477566719e-04 2.276269346475601196e-02 -6.677806377410888672e-03
-3.793167881667613983e-03 -1.717612519860267639e-02 -6.462275981903076172e-03
2.311945194378495216e-03 3.687313199043273926e-02 -3.677332401275634766e-02
-1.929663494229316711e-02 -4.204249382019042969e-02 -2.615153789520263672e-03
-1.227764692157506943e-02 -3.801268711686134338e-02 -5.047798156738281250e-03
-8.411682210862636566e-03 -2.026814222335815430e-02 -5.932688713073730469e-03
-3.052372112870216370e-02 1.928778737783432007e-02 4.665374755859375000e-03
8.502531796693801880e-03 5.353229865431785583e-02 -6.109356880187988281e-03
8.502531796693801880e-03 -4.409107938408851624e-02 -6.109356880187988281e-03
-1.227669604122638702e-02 2.898495458066463470e-02 -5.087196826934814453e-03
2.892412245273590088e-02 9.085329249501228333e-03 3.182411193847656250e-03
2.974146977066993713e-02 5.133208259940147400e-02 3.933131694793701172e-03
1.081522554159164429e-02 -4.950780794024467468e-02 -5.696952342987060547e-03
-3.558114171028137207e-02 -3.904492035508155823e-02 1.036155223846435547e-02
-5.331962369382381439e-03 2.354716323316097260e-02 -6.266236305236816406e-03
-2.646639384329319000e-02 4.802323505282402039e-02 1.727163791656494141e-03
2.973950840532779694e-02 -4.199701361358165741e-03 3.892481327056884766e-03
4.275729879736900330e-02 -4.229475930333137512e-02 2.272069454193115234e-02
-4.391279444098472595e-02 2.811608649790287018e-02 2.655410766601562500e-02
1.584339071996510029e-03 2.524425461888313293e-02 -3.649187088012695312e-02
4.467994719743728638e-02 -4.341591522097587585e-02 2.705866098403930664e-02
4.079622030258178711e-02 4.530639946460723877e-02 1.744312047958374023e-02
-1.539007294923067093e-02 2.981226518750190735e-02 -3.962576389312744141e-03
-1.072519365698099136e-02 4.665357619524002075e-02 -5.618393421173095703e-03
3.384752199053764343e-02 4.534651711583137512e-02 7.489383220672607422e-03
-3.387985751032829285e-02 1.704278588294982910e-02 8.374929428100585938e-03
4.654786083847284317e-03 -1.946507953107357025e-02 -6.912708282470703125e-03
-2.245794236660003662e-02 2.686178125441074371e-02 -9.819269180297851562e-04
-2.566076256334781647e-02 5.731832981109619141e-02 1.163244247436523438e-03
1.545725762844085693e-02 -2.417013794183731079e-02 -4.594445228576660156e-03
-2.808132953941822052e-02 -6.533253472298383713e-03 2.838194370269775391e-03
1.467980351299047470e-02 -1.491360273212194443e-02 -4.890203475952148438e-03
1.623802259564399719e-02 2.902894839644432068e-02 -4.199683666229248047e-03
3.886859863996505737e-03 -2.022986114025115967e-02 -6.990969181060791016e-03
3.038374707102775574e-03 1.503318175673484802e-02 -3.721249103546142578e-02
-1.773128658533096313e-02 -2.654905058443546295e-02 -3.170728683471679688e-03
-1.461017038673162460e-02 1.437383517622947693e-02 -4.258930683135986328e-03
1.158720441162586212e-02 -3.028522431850433350e-02 -5.539715290069580078e-03
-3.052372112870216370e-02 1.615529507398605347e-02 4.665374755859375000e-03
-3.730219602584838867e-02 7.635250687599182129e-03 1.248717308044433594e-02
2.811256423592567444e-02 -2.447491325438022614e-02 2.514541149139404297e-03
8.164105005562305450e-03 4.148251377046108246e-03 -3.417664766311645508e-02
3.640450537204742432e-02 6.032397970557212830e-03 1.081871986389160156e-02
2.330594696104526520e-02 -4.062306880950927734e-02 -8.220672607421875000e-04
3.056596592068672180e-02 1.615856960415840149e-02 4.787564277648925781e-03
4.177388548851013184e-02 -4.612704738974571228e-02 2.009177207946777344e-02
4.275729879736900330e-02 -4.310207813978195190e-02 2.272069454193115234e-02
1.390610355883836746e-02 5.132010579109191895e-02 -5.047798156738281250e-03
-2.405683510005474091e-02 4.478212445974349976e-02 9.870529174804687500e-05
3.553782775998115540e-02 -1.876021735370159149e-03 9.511470794677734375e-03
-6.101228296756744385e-03 -1.103552524000406265e-02 -6.207406520843505859e-03
2.892412245273590088e-02 -2.137900143861770630e-02 3.182411193847656250e-03
-3.219116851687431335e-02 3.583928942680358887e-02 6.422042846679687500e-03
2.093988656997680664e-02 1.907414942979812622e-02 -1.978874206542968750e-03
-1.150125823915004730e-02 -4.030344262719154358e-02 -5.323410034179687500e-03
3.553663194179534912e-02 1.154706068336963654e-02 9.490728378295898438e-03
2.730108052492141724e-02 -2.989968284964561462e-02 1.807868480682373047e-03
-2.086731977760791779e-02 -1.886205375194549561e-02 -1.998782157897949219e-03
-2.008043788373470306e-02 -1.188704743981361389e-02 -2.336978912353515625e-03
7.732372265309095383e-03 5.582512542605400085e-02 -6.246626377105712891e-03
-1.538948994129896164e-02 -4.579943791031837463e-02 -3.982365131378173828e-03
1.313282735645771027e-02 4.360718280076980591e-02 -5.205333232879638672e-03
2.093988656997680664e-02 2.759059146046638489e-02 -1.978874206542968750e-03
-9.953479282557964325e-03 -7.199052721261978149e-03 -5.736291408538818359e-03
-3.303471580147743225e-02 5.478179827332496643e-02 7.407128810882568359e-03
-4.188721254467964172e-02 -4.217369481921195984e-02 2.101570367813110352e-02
-2.087273448705673218e-02 5.392517521977424622e-02 -1.859426498413085938e-03
1.234994269907474518e-04 2.094458043575286865e-02 -3.467315435409545898e-02
-4.531860351562500000e-02 1.365856546908617020e-02 3.432416915893554688e-02
7.597503252327442169e-03 -1.378843933343887329e-02 -1.883006095886230469e-02
-9.953479282557964325e-03 -2.763617085292935371e-04 -5.736291408538818359e-03
1.701933145523071289e-02 5.142830312252044678e-02 -3.824174404144287109e-03
-3.908756375312805176e-02 -3.379917517304420471e-02 1.538747549057006836e-02
-3.310514241456985474e-02 -6.021376326680183411e-02 8.601844310760498047e-03
-4.094813019037246704e-02 -2.717171795666217804e-03 1.912784576416015625e-02
2.317738020792603493e-03 -1.050815824419260025e-02 -3.244954347610473633e-02
4.885334055870771408e-05 -3.328786045312881470e-02 -6.814837455749511719e-03
7.732372265309095383e-03 5.505661666393280029e-02 -6.246626377105712891e-03
9.273060597479343414e-03 -5.563484132289886475e-02 -5.971968173980712891e-03
2.648983336985111237e-02 4.796892777085304260e-02 1.062631607055664062e-03
-2.646834030747413635e-02 -5.093708634376525879e-02 1.767516136169433594e-03
1.158720441162586212e-02 -5.798546597361564636e-02 -5.539715290069580078e-03
-3.816455975174903870e-02 -4.879581183195114136e-02 1.351374387741088867e-02
2.409648150205612183e-02 -2.124303579330444336e-02 -4.420876502990722656e-04
-2.245794236660003662e-02 -1.269165147095918655e-02 -9.819269180297851562e-04
2.172729000449180603e-02 -4.599090665578842163e-02 -1.600444316864013672e-03
-1.616956107318401337e-02 2.365008741617202759e-02 -3.705441951751708984e-03
9.273324161767959595e-03 3.739995136857032776e-02 -5.952298641204833984e-03
-1.694974116981029510e-02 -1.958576217293739319e-02 -3.448128700256347656e-03
2.172798477113246918e-02 -6.479974836111068726e-03 -1.580476760864257812e-03
-2.808029763400554657e-02 4.655107483267784119e-02 2.817928791046142578e-03
3.119300585240125656e-03 -2.943892218172550201e-02 -7.010519504547119141e-03
-1.072519365698099136e-02 1.357170566916465759e-02 -5.618393421173095703e-03
-1.773062162101268768e-02 3.448715806007385254e-02 -3.190577030181884766e-03
-2.245794236660003662e-02 2.918845415115356445e-02 -9.819269180297851562e-04
-3.303350508213043213e-02 3.196359425783157349e-02 7.386565208435058594e-03
7.732161786407232285e-03 -3.024628944694995880e-02 -6.266236305236816406e-03
-1.383159868419170380e-02 9.742387570440769196e-03 -4.535317420959472656e-03
3.220723941922187805e-02 -1.756683364510536194e-02 6.217241287231445312e-03
2.568733505904674530e-02 -8.059849031269550323e-03 4.798769950866699219e-04
5.423578433692455292e-03 -2.254260890185832977e-02 -6.736516952514648438e-03
-9.953479282557964325e-03 4.279816150665283203e-02 -5.736291408538818359e-03
-2.566170319914817810e-02 4.953570291399955750e-02 1.183331012725830078e-03
1.158720441162586212e-02 -2.797687053680419922e-02 -5.539715290069580078e-03
-2.970135957002639771e-02 3.959994763135910034e-02 3.933131694793701172e-03
-9.953479282557964325e-03 -3.412062674760818481e-02 -5.736291408538818359e-03
-1.227717194706201553e-02 -2.877036295831203461e-02 -5.067467689514160156e-03
2.093988656997680664e-02 3.146170079708099365e-02 -1.978874206542968750e-03
-2.727359347045421600e-02 1.843154057860374451e-02 2.292275428771972656e-03
-2.255818340927362442e-03 -4.635709896683692932e-02 -6.599426269531250000e-03
2.488966472446918488e-02 1.525286491960287094e-02 -2.157688140869140625e-05
3.814944997429847717e-02 -5.197016149759292603e-02 1.345080137252807617e-02
1.004395820200443268e-02 -3.488376364111900330e-02 -5.834519863128662109e-03
1.701827347278594971e-02 -5.121085420250892639e-02 -3.863692283630371094e-03
1.584339071996510029e-03 -2.943994291126728058e-02 -6.990969181060791016e-03
-3.558114171028137207e-02 -3.509114310145378113e-02 1.036155223846435547e-02
1.584339071996510029e-03 -3.941617161035537720e-02 -7.010519504547119141e-03
-1.072519365698099136e-02 4.126815125346183777e-02 -5.618393421173095703e-03
4.079343006014823914e-02 6.894309539347887039e-03 1.740062236785888672e-02
-2.086731977760791779e-02 -2.970078587532043457e-02 -1.998782157897949219e-03
-3.908900544047355652e-02 3.319100663065910339e-02 1.540857553482055664e-02
3.384300321340560913e-02 -3.097904473543167114e-02 7.407128810882568359e-03
1.584339071996510029e-03 -4.862426221370697021e-02 -7.030069828033447266e-03
-2.727359347045421600e-02 -2.134560979902744293e-02 2.292275428771972656e-03
-3.643877431750297546e-02 -3.515384718775749207e-02 1.140159368515014648e-02
-9.953479282557964325e-03 -4.891489166766405106e-03 -5.736291408538818359e-03
2.649242058396339417e-02 -1.273959223181009293e-02 1.122951507568359375e-03
2.811164408922195435e-02 3.404206410050392151e-02 2.494335174560546875e-03
2.251644991338253021e-02 3.537967428565025330e-02 -1.201510429382324219e-03
-1.150081027299165726e-02 3.436027094721794128e-02 -5.343079566955566406e-03
-4.391279444098472595e-02 4.923975467681884766e-02 2.655410766601562500e-02
4.492974374443292618e-03 -2.415809314697980881e-03 -3.710716962814331055e-02
6.962396670132875443e-03 5.734658241271972656e-02 -6.403505802154541016e-03
8.502295240759849548e-03 -3.025364503264427185e-02 -6.128966808319091797e-03
-3.052483871579170227e-02 3.025255165994167328e-02 4.685699939727783203e-03
1.004395820200443268e-02 -4.890567623078823090e-03 -5.834519863128662109e-03
2.312959404662251472e-03 3.983832150697708130e-02 -3.601634502410888672e-02
8.555534295737743378e-04 8.509468287229537964e-03 -3.589290380477905273e-02
-1.305377483367919922e-02 5.750443041324615479e-02 -4.811346530914306641e-03
4.492786247283220291e-03 3.401273395866155624e-03 -3.714227676391601562e-02
1.623751968145370483e-02 -7.990594021975994110e-03 -4.219472408294677734e-03
-2.405595034360885620e-02 5.410433560609817505e-02 7.867813110351562500e-05
-1.694974116981029510e-02 -2.499153837561607361e-02 -3.448128700256347656e-03
-1.150081027299165726e-02 -1.816317671909928322e-03 -5.343079566955566406e-03
3.991954028606414795e-02 5.080777779221534729e-02 1.625460386276245117e-02
-2.808132953941822052e-02 -3.229554370045661926e-02 2.838194370269775391e-03
1.390568166971206665e-02 1.974492333829402924e-02 -5.067467689514160156e-03
3.904104232788085938e-02 3.555867448449134827e-02 1.498645544052124023e-02
-9.953479282557964325e-03 -1.258336752653121948e-02 -5.736291408538818359e-03
2.015350945293903351e-02 1.674085110425949097e-02 -2.356827259063720703e-03
9.273060597479343414e-03 2.125237509608268738e-02 -5.971968173980712891e-03
3.039080183953046799e-03 -2.416656352579593658e-03 -3.694909811019897461e-02
2.409648150205612183e-02 9.808194823563098907e-03 -4.420876502990722656e-04
-1.305377483367919922e-02 5.134101584553718567e-02 -4.811346530914306641e-03
9.273060597479343414e-03 -3.487529233098030090e-02 -5.971968173980712891e-03
-4.001493379473686218e-02 2.369242161512374878e-02 1.725178956985473633e-02
1.780110411345958710e-02 3.292635455727577209e-02 -3.467917442321777344e-03
-2.485851943492889404e-02 3.315753489732742310e-02 6.405115127563476562e-04
8.502295240759849548e-03 -1.257442403584718704e-02 -6.128966808319091797e-03
-2.166474051773548126e-02 5.086582526564598083e-02 -1.420974731445312500e-03
1.545773167163133621e-02 4.365449026226997375e-02 -4.574775695800781250e-03
-6.871229968965053558e-03 -3.563551232218742371e-02 -6.109356880187988281e-03
3.056495450437068939e-02 -3.083756938576698303e-02 4.767179489135742188e-03
1.235923729836940765e-02 -1.413025055080652237e-02 -5.402088165283203125e-03
2.730018645524978638e-02 3.166354820132255554e-02 1.787662506103515625e-03
-3.303471580147743225e-02 3.825906664133071899e-02 7.407128810882568359e-03
2.172798477113246918e-02 -2.274984307587146759e-02 -1.580476760864257812e-03
-3.817018494009971619e-02 5.694424360990524292e-02 1.359766721725463867e-02
-3.816877678036689758e-02 4.501631855964660645e-02 1.357668638229370117e-02
3.302319347858428955e-02 2.485793828964233398e-02 6.791055202484130859e-03
1.936816424131393433e-02 -1.961062662303447723e-02 -2.734303474426269531e-03
1.545725762844085693e-02 -1.260937377810478210e-02 -4.594445228576660156e-03
-9.950322099030017853e-03 -5.794945359230041504e-02 -5.893409252166748047e-03
4.474396258592605591e-02 5.668177083134651184e-02 2.796018123626708984e-02
-3.219116851687431335e-02 4.212310165166854858e-02 6.422042846679687500e-03
3.056596592068672180e-02 -8.123332634568214417e-03 4.787564277648925781e-03
1.623751968145370483e-02 -2.033011615276336670e-02 -4.219472408294677734e-03
1.545773167163133621e-02 3.575802082195878029e-03 -4.574775695800781250e-03
3.138767927885055542e-02 -5.362376570701599121e-02 5.542397499084472656e-03
2.251644991338253021e-02 2.452598884701728821e-02 -1.201510429382324219e-03
2.093988656997680664e-02 -8.797835558652877808e-03 -1.978874206542968750e-03
2.892412245273590088e-02 -5.887356027960777283e-02 3.182411193847656250e-03
-4.531688615679740906e-02 -2.912900410592556000e-02 3.430169820785522461e-02
-1.773128658533096313e-02 -1.573229953646659851e-02 -3.170728683471679688e-03
-3.908611834049224854e-02 2.087746048346161842e-03 1.536631584167480469e-02
1.780054718255996704e-02 -3.811719268560409546e-02 -3.487706184387207031e-03
-6.871229968965053558e-03 2.124740369617938995e-02 -6.109356880187988281e-03
2.330594696104526520e-02 -3.596844151616096497e-02 -8.220672607421875000e-04
2.409648150205612183e-02 5.017479509115219116e-02 -4.420876502990722656e-04
-4.030565917491912842e-02 6.091109663248062134e-02 2.142488956451416016e-02
-4.391279444098472595e-02 3.136588260531425476e-02 2.655410766601562500e-02
3.138871863484382629e-02 -4.813537001609802246e-02 5.562782287597656250e-03
-2.646639384329319000e-02 2.698518522083759308e-02 1.727163791656494141e-03
2.330594696104526520e-02 9.802085347473621368e-03 -8.220672607421875000e-04
1.584339071996510029e-03 2.676917007192969322e-03 -3.645670413970947266e-02
2.568900398910045624e-02 -4.693893343210220337e-02 5.200505256652832031e-04
2.330594696104526520e-02 5.867569893598556519e-02 -8.220672607421875000e-04
-4.531688615679740906e-02 2.961311722174286842e-03 3.430169820785522461e-02
-2.888952195644378662e-02 -1.904170215129852295e-02 3.364861011505126953e-03
4.370834678411483765e-02 3.613621741533279419e-02 2.478384971618652344e-02
4.655310418456792831e-03 5.577031522989273071e-02 -6.814837455749511719e-03
1.313282735645771027e-02 5.438577011227607727e-02 -5.205333232879638672e-03
-1.773062162101268768e-02 8.218810893595218658e-03 -3.190577030181884766e-03
3.468193858861923218e-02 2.965023554861545563e-02 8.333683013916015625e-03
-2.245794236660003662e-02 -2.587612904608249664e-02 -9.819269180297851562e-04
-3.644011542201042175e-02 1.079111639410257339e-02 1.142245531082153320e-02
-3.908611834049224854e-02 -5.293699726462364197e-02 1.536631584167480469e-02
4.079343006014823914e-02 7.694495376199483871e-03 1.740062236785888672e-02
1.858442835509777069e-02 3.603846579790115356e-02 -3.091454505920410156e-03
-4.391114786267280579e-02 5.492493137717247009e-02 2.653217315673828125e-02
1.623802259564399719e-02 2.825770154595375061e-02 -4.199683666229248047e-03
3.120507113635540009e-03 5.963528901338577271e-02 -6.560266017913818359e-03
1.235923729836940765e-02 -5.338166654109954834e-02 -5.402088165283203125e-03
3.813781216740608215e-02 -4.718561843037605286e-02 1.326197385787963867e-02
9.273324161767959595e-03 4.124443978071212769e-02 -5.952298641204833984e-03
-3.024164587259292603e-03 -4.115677438676357269e-03 -6.560266017913818359e-03
3.727125748991966248e-02 3.300757333636283875e-02 1.206916570663452148e-02
-2.888952195644378662e-02 -3.310656175017356873e-02 3.364861011505126953e-03
-1.929663494229316711e-02 -4.358922690153121948e-02 -2.615153789520263672e-03
-3.218881040811538696e-02 -4.506165534257888794e-02 6.381094455718994141e-03
7.732161786407232285e-03 -4.407889023423194885e-02 -6.266236305236816406e-03
-1.539007294923067093e-02 -2.496879361569881439e-02 -3.962576389312744141e-03
-2.970026805996894836e-02 -4.981980193406343460e-03 3.912806510925292969e-03
1.858384534716606140e-02 -3.659699857234954834e-02 -3.111243247985839844e-03
3.220723941922187805e-02 -8.144401945173740387e-03 6.217241287231445312e-03
1.780054718255996704e-02 -5.742220208048820496e-02 -3.487706184387207031e-03
-1.851358264684677124e-02 -4.588699713349342346e-02 -2.893090248107910156e-03
1.780054718255996704e-02 -5.201680213212966919e-02 -3.487706184387207031e-03
2.730018645524978638e-02 1.997452788054943085e-02 1.787662506103515625e-03
-1.929591596126556396e-02 9.772938676178455353e-03 -2.635002136230468750e-03
-1.773062162101268768e-02 4.916652664542198181e-02 -3.190577030181884766e-03
2.312746830284595490e-03 -3.877620212733745575e-03 -3.617495298385620117e-02
3.468309342861175537e-02 4.620062932372093201e-02 8.354246616363525391e-03
4.271740838885307312e-02 4.525480326265096664e-03 2.213686704635620117e-02
4.273217543959617615e-02 -1.080265920609235764e-02 2.235299348831176758e-02
-3.558244928717613220e-02 3.133335337042808533e-02 1.038235425949096680e-02
7.732372265309095383e-03 -5.560798197984695435e-02 -6.246626377105712891e-03
-9.953479282557964325e-03 -5.411950871348381042e-02 -5.736291408538818359e-03
-3.816596791148185730e-02 6.852874998003244400e-03 1.353472471237182617e-02
2.172729000449180603e-02 5.704803764820098877e-02 -1.600444316864013672e-03
-2.245794236660003662e-02 2.043941058218479156e-03 -9.819269180297851562e-04
1.858384534716606140e-02 -1.418856438249349594e-02 -3.111243247985839844e-03
-3.792983945459127426e-03 -4.867126792669296265e-02 -6.481885910034179688e-03
5.242024548351764679e-03 4.438505321741104126e-02 -3.383922576904296875e-02
-2.727359347045421600e-02 -2.368544228374958038e-02 2.292275428771972656e-03
4.369772225618362427e-02 2.112571615725755692e-03 2.463132143020629883e-02
2.172729000449180603e-02 4.232818633317947388e-02 -1.600444316864013672e-03
-2.808132953941822052e-02 -4.712838307023048401e-02 2.838194370269775391e-03
-7.193615892902016640e-04 -4.634909331798553467e-02 -6.697356700897216797e-03
-1.929663494229316711e-02 -4.281586036086082458e-02 -2.615153789520263672e-03
4.369772225618362427e-02 -1.975399255752563477e-02 2.463132143020629883e-02
3.220509737730026245e-02 4.681653529405593872e-02 6.176292896270751953e-03
-2.086731977760791779e-02 -1.499107759445905685e-02 -1.998782157897949219e-03
5.950540769845247269e-03 1.941303536295890808e-02 -3.670299053192138672e-02
-7.641495205461978912e-03 -2.103412151336669922e-02 -6.011188030242919922e-03
1.004395820200443268e-02 -6.428680382668972015e-03 -5.834519863128662109e-03
-3.792800009250640869e-03 4.811891168355941772e-02 -6.501495838165283203e-03
3.046223893761634827e-03 -9.009424597024917603e-03 -3.428310155868530273e-02
-2.405595034360885620e-02 -4.534889757633209229e-02 7.867813110351562500e-05
-1.461017038673162460e-02 3.056834451854228973e-02 -4.258930683135986328e-03
-1.487471978180110455e-03 -2.254575677216053009e-02 -6.658196449279785156e-03
2.351846080273389816e-03 -2.867243625223636627e-02 -6.990969181060791016e-03
3.467961773276329041e-02 -1.290288195013999939e-02 8.292436599731445312e-03
-4.531002044677734375e-02 -5.709674209356307983e-02 3.421175479888916016e-02
-6.871229968965053558e-03 -4.947189241647720337e-02 -6.109356880187988281e-03
1.159131433814764023e-02 5.976491048932075500e-02 -5.303740501403808594e-03
-2.646834030747413635e-02 -3.924846649169921875e-02 1.767516136169433594e-03
8.555534295737743378e-04 2.818668074905872345e-02 -3.589290380477905273e-02
-1.072519365698099136e-02 2.665058523416519165e-02 -5.618393421173095703e-03
-8.411682210862636566e-03 4.893508180975914001e-02 -5.932688713073730469e-03
-4.094813019037246704e-02 1.574031636118888855e-02 1.912784576416015625e-02
-1.538948994129896164e-02 -5.582942813634872437e-02 -3.982365131378173828e-03
-2.325492724776268005e-02 3.597734495997428894e-03 -4.821419715881347656e-04
3.902909159660339355e-02 -4.332550242543220520e-02 1.479667425155639648e-02
4.468306899070739746e-02 2.488833665847778320e-02 2.710258960723876953e-02
1.546106394380331039e-02 -5.886871367692947388e-02 -4.436612129211425781e-03
3.903174772858619690e-02 -3.615782782435417175e-02 1.483887434005737305e-02
-1.538948994129896164e-02 -5.197173729538917542e-02 -3.982365131378173828e-03
-1.694974116981029510e-02 -2.653604373335838318e-02 -3.448128700256347656e-03
3.554021567106246948e-02 -2.003863267600536346e-02 9.552896022796630859e-03
4.468151181936264038e-02 -4.179119318723678589e-02 2.708065509796142578e-02
-2.651997841894626617e-02 6.060483679175376892e-02 2.838194370269775391e-03
2.568733505904674530e-02 -1.427997648715972900e-02 4.798769950866699219e-04
2.892412245273590088e-02 -2.528468519449234009e-02 3.182411193847656250e-03
2.311780350282788277e-03 1.795141585171222687e-02 -3.689634799957275391e-02
-3.135044500231742859e-02 1.276987721212208271e-03 5.440235137939453125e-03
-3.052148222923278809e-02 -5.432199314236640930e-02 4.624605178833007812e-03
2.311827382072806358e-03 1.067766267806291580e-02 -3.686124086380004883e-02
-6.101228296756744385e-03 -3.639789298176765442e-02 -6.207406520843505859e-03
2.568816952407360077e-02 -2.594363130629062653e-02 4.999637603759765625e-04
-2.166153304278850555e-02 -5.839671194553375244e-02 -1.500785350799560547e-03
6.192684639245271683e-03 -2.946142293512821198e-02 -6.579875946044921875e-03
-2.970135957002639771e-02 4.820351675152778625e-02 3.933131694793701172e-03
-1.227669604122638702e-02 5.824713781476020813e-02 -5.087196826934814453e-03
1.313282735645771027e-02 3.667809069156646729e-02 -5.205333232879638672e-03
3.302319347858428955e-02 2.407196722924709320e-02 6.791055202484130859e-03
-1.694974116981029510e-02 2.211592160165309906e-02 -3.448128700256347656e-03
3.384413570165634155e-02 -1.209636218845844269e-02 7.427692413330078125e-03
1.467935368418693542e-02 5.749465525150299072e-02 -4.909932613372802734e-03
1.780054718255996704e-02 -4.738359898328781128e-02 -3.487706184387207031e-03
4.080041125416755676e-02 5.811643972992897034e-02 1.750695705413818359e-02
2.488966472446918488e-02 1.447602082043886185e-02 -2.157688140869140625e-05
-2.889058180153369904e-02 5.181275308132171631e-03 3.385126590728759766e-03
-4.001493379473686218e-02 4.928261623717844486e-04 1.725178956985473633e-02
2.093988656997680664e-02 3.842969983816146851e-02 -1.978874206542968750e-03
3.220188990235328674e-02 5.387727916240692139e-02 6.114900112152099609e-03
-4.531173408031463623e-02 -5.298515409231185913e-02 3.423422574996948242e-02
-4.284979403018951416e-02 2.108612796291708946e-03 2.315384149551391602e-02
-3.023691941052675247e-03 5.271718278527259827e-02 -6.619036197662353516e-03
1.545725762844085693e-02 -5.808171629905700684e-02 -4.594445228576660156e-03
