1.522928625345230103e-01 1.419905275106430054e-01 -6.054721772670745850e-02
-4.235242307186126709e-01 -1.215780079364776611e-01 5.584973841905593872e-02
1.522928625345230103e-01 -5.524467229843139648e-01 -6.054721772670745850e-02
7.993198186159133911e-02 -2.628268003463745117e-01 -8.686625212430953979e-02
7.993198186159133911e-02 -4.784284830093383789e-01 -8.686625212430953979e-02
-5.270417928695678711e-01 -3.960213959217071533e-01 2.047725468873977661e-01
-3.753239214420318604e-01 -4.857589900493621826e-01 1.637084037065505981e-02
2.532820999622344971e-01 2.703925669193267822e-01 -7.285528350621461868e-03
-4.332090318202972412e-01 2.916058897972106934e-01 6.346706300973892212e-02
-5.465175956487655640e-02 -5.581265091896057129e-01 -1.007429361343383789e-01
-3.945109844207763672e-01 -4.319928884506225586e-01 3.168255835771560669e-02
-4.042040109634399414e-01 -3.959279060363769531e-01 4.042940959334373474e-02
-1.898049414157867432e-01 -1.731786876916885376e-01 -7.956354320049285889e-02
-2.354918718338012695e-01 -5.884812474250793457e-01 -6.100687757134437561e-02
4.398554936051368713e-02 -8.310107886791229248e-02 -9.164993464946746826e-02
-2.262499779462814331e-01 -3.807303905487060547e-01 -6.697404384613037109e-02
6.175952553749084473e-01 5.528517365455627441e-01 8.937554666772484779e-04
4.939690232276916504e-01 5.390312671661376953e-01 5.632551386952400208e-02
-3.753100633621215820e-01 -1.938575357198715210e-01 1.613610610365867615e-02
-4.737353622913360596e-01 -1.874069720506668091e-01 1.158129349350929260e-01
-5.383782982826232910e-01 -3.503608405590057373e-01 2.291835695505142212e-01
-3.562491536140441895e-01 -6.303406357765197754e-01 1.595857902429997921e-03
4.491130411624908447e-01 -2.111173421144485474e-02 2.254362255334854126e-01
-4.332090318202972412e-01 4.661172926425933838e-01 6.346706300973892212e-02
4.398554936051368713e-02 2.221167683601379395e-01 -9.164993464946746826e-02
4.381714165210723877e-01 -2.833125889301300049e-01 1.993154883384704590e-01
4.171501696109771729e-01 -6.448600292205810547e-01 1.586600989103317261e-01
8.893677592277526855e-02 3.391773700714111328e-01 -8.458546549081802368e-02
3.500733524560928345e-02 3.567229211330413818e-01 -9.256014972925186157e-02
-3.467106819152832031e-01 8.860462158918380737e-02 -6.351493764668703079e-03
5.296619981527328491e-02 -4.961100220680236816e-01 -9.073902666568756104e-02
2.161567807197570801e-01 1.334956288337707520e-01 -3.448463976383209229e-02
6.775993108749389648e-01 -8.375409245491027832e-02 -3.749275207519531250e-02
-1.085959300398826599e-01 -5.587683916091918945e-01 -9.301560372114181519e-02
-3.278098404407501221e-01 -2.472752332687377930e-01 -2.009854838252067566e-02
-2.354918718338012695e-01 -1.132616586983203888e-02 -6.100687757134437561e-02
-4.840443730354309082e-01 4.521231949329376221e-01 1.301177442073822021e-01
1.432102024555206299e-01 1.509255170822143555e-01 -6.422169506549835205e-02
3.675791919231414795e-01 -2.792386114597320557e-01 9.795416891574859619e-02
2.254016548395156860e-01 -1.291799843311309814e-01 -2.799474820494651794e-02
-3.184885680675506592e-01 2.489084005355834961e-02 -2.497822977602481842e-02
-2.631282806396484375e-01 -4.179753661155700684e-01 -4.742588847875595093e-02
-3.184885680675506592e-01 -1.020376086235046387e-01 -2.497822977602481842e-02
-4.332090318202972412e-01 -2.870373129844665527e-01 6.346706300973892212e-02
-4.635201394557952881e-01 -6.765964031219482422e-01 1.022901013493537903e-01
-3.372194468975067139e-01 -2.308115595951676369e-03 -1.381466072052717209e-02
2.626163065433502197e-01 3.343701958656311035e-01 -2.757145848590880632e-04
-1.085913628339767456e-01 2.938623428344726562e-01 -9.324263036251068115e-02
-1.089030131697654724e-01 -7.219591736793518066e-01 -7.773471623659133911e-02
-8.857108769007027149e-04 -7.021571397781372070e-01 -9.506235271692276001e-02
-3.184885680675506592e-01 -3.558945059776306152e-01 -2.497822977602481842e-02
1.704781055450439453e-01 6.206175684928894043e-01 -5.364741384983062744e-02
-3.849421739578247070e-01 5.273913741111755371e-01 2.460687980055809021e-02
-4.432093203067779541e-01 2.553143501281738281e-01 7.540210336446762085e-02
-3.945401012897491455e-01 -5.874512791633605957e-01 3.215483203530311584e-02
1.160216331481933594e-01 3.216561675071716309e-01 -7.521989941596984863e-02
3.190289437770843506e-01 -3.777110278606414795e-01 4.208656772971153259e-02
6.195052340626716614e-02 -3.525179922580718994e-01 -8.960038423538208008e-02
1.341411471366882324e-01 -2.005090266466140747e-01 -6.766213476657867432e-02
4.382006525993347168e-01 -5.362544059753417969e-01 1.998115926980972290e-01
-3.466978371143341064e-01 4.613308608531951904e-01 -6.584827322512865067e-03
-3.372194468975067139e-01 -2.929089069366455078e-01 -1.381466072052717209e-02
-1.356092840433120728e-01 5.454747676849365234e-01 -8.937265723943710327e-02
3.190289437770843506e-01 -1.030259579420089722e-01 4.208656772971153259e-02
-4.431929886341094971e-01 -2.691220939159393311e-01 7.516316324472427368e-02
1.978494673967361450e-01 7.003626227378845215e-02 -4.234720766544342041e-02
1.704781055450439453e-01 -2.821732759475708008e-01 -5.364741384983062744e-02
7.093789428472518921e-02 6.263805627822875977e-01 -8.846104890108108521e-02
-2.999309599399566650e-01 -5.999060273170471191e-01 -3.378954529762268066e-02
-4.138455688953399658e-01 4.742254614830017090e-01 4.801239818334579468e-02
-2.079984247684478760e-01 8.770341426134109497e-02 -7.361809164285659790e-02
-3.562359511852264404e-01 5.801947712898254395e-01 1.361823757179081440e-03
3.872526586055755615e-01 -1.041909828782081604e-01 1.211396604776382446e-01
-4.235242307186126709e-01 3.188031613826751709e-01 5.584973841905593872e-02
-1.626520007848739624e-01 -6.222683787345886230e-01 -8.572620898485183716e-02
2.813250124454498291e-01 4.444554746150970459e-01 1.331648416817188263e-02
-2.999421060085296631e-01 3.055558800697326660e-01 -3.355831280350685120e-02
-4.737353622913360596e-01 -4.280354976654052734e-01 1.158129349350929260e-01
3.286780118942260742e-01 4.287337958812713623e-01 5.323542281985282898e-02
3.972434103488922119e-01 8.121454715728759766e-02 1.347367614507675171e-01
-3.753516376018524170e-01 5.359102487564086914e-01 1.684101112186908722e-02
-3.672851994633674622e-02 -6.119774580001831055e-01 -1.000618487596511841e-01
3.578034639358520508e-01 -3.064323365688323975e-01 8.666026592254638672e-02
-3.849138021469116211e-01 -6.623294949531555176e-02 2.413600869476795197e-02
-4.432093203067779541e-01 2.645151615142822266e-01 7.540210336446762085e-02
-5.151717662811279297e-01 3.522733747959136963e-01 1.726517081260681152e-01
-4.332090318202972412e-01 -2.686676681041717529e-01 6.346706300973892212e-02
5.296711996197700500e-02 -1.908570379018783569e-01 -9.051129966974258423e-02
7.093942165374755859e-02 8.750761300325393677e-02 -8.823331445455551147e-02
1.704781055450439453e-01 6.477013230323791504e-01 -5.364741384983062744e-02
-3.278098404407501221e-01 -3.742952048778533936e-01 -2.009854838252067566e-02
-2.539579868316650391e-01 3.499367535114288330e-01 -5.065331980586051941e-02
-1.716974526643753052e-01 4.920144677162170410e-01 -8.367315679788589478e-02
2.603155933320522308e-02 6.889439821243286133e-01 -9.142220765352249146e-02
2.439671456813812256e-01 1.339016556739807129e-01 -1.428062655031681061e-02
-3.849421739578247070e-01 9.815213829278945923e-02 2.460687980055809021e-02
3.383477330207824707e-01 -3.238100409507751465e-01 6.418177485466003418e-02
-5.619223713874816895e-01 -4.100825786590576172e-01 2.861323654651641846e-01
1.160216331481933594e-01 6.816164851188659668e-01 -7.521989941596984863e-02
-4.235398173332214355e-01 -4.885790944099426270e-01 5.608727782964706421e-02
2.162023782730102539e-01 6.497062444686889648e-01 -3.286321833729743958e-02
2.346714138984680176e-01 2.244743555784225464e-01 -2.126101031899452209e-02
9.794525057077407837e-02 -1.820923388004302979e-01 -8.253171294927597046e-02
-2.354829460382461548e-01 4.666144549846649170e-01 -6.123670563101768494e-02
3.383477330207824707e-01 -6.269404888153076172e-01 6.418177485466003418e-02
-6.363786011934280396e-02 4.281050860881805420e-01 -9.915374219417572021e-02
-1.807413995265960693e-01 -1.011995300650596619e-01 -8.184713125228881836e-02
1.978553384542465210e-01 6.397702097892761230e-01 -4.211667552590370178e-02
-2.999421060085296631e-01 -2.041776105761528015e-02 -3.355831280350685120e-02
-4.943777918815612793e-01 5.181012749671936035e-01 1.442375779151916504e-01
-2.723379731178283691e-01 6.486799716949462891e-01 -4.350266233086585999e-02
-1.085913628339767456e-01 3.207869231700897217e-01 -9.324263036251068115e-02
-2.079904824495315552e-01 -6.143656969070434570e-01 -7.384652644395828247e-02
1.341448277235031128e-01 -6.329689025878906250e-01 -6.743300706148147583e-02
9.794525057077407837e-02 -5.506500601768493652e-01 -8.253171294927597046e-02
2.161502689123153687e-01 -5.545577406883239746e-01 -3.471587225794792175e-02
6.195052340626716614e-02 -3.165990412235260010e-01 -8.960038423538208008e-02
3.095681965351104736e-01 -3.956008851528167725e-01 3.475303202867507935e-02
-3.372194468975067139e-01 -1.839336156845092773e-01 -1.381466072052717209e-02
2.719528377056121826e-01 -4.303933084011077881e-01 6.279343273490667343e-03
7.052131295204162598e-01 4.504796266555786133e-01 -3.286321833729743958e-02
4.171639382839202881e-01 8.150596171617507935e-02 1.589053422212600708e-01
6.766633987426757812e-01 3.139712512493133545e-01 -4.719536006450653076e-02
-4.568694159388542175e-02 -3.071117699146270752e-01 -1.007429361343383789e-01
-9.845950640738010406e-03 -1.009712666273117065e-01 -9.733612835407257080e-02
3.774116933345794678e-01 -4.831440746784210205e-01 1.097693890333175659e-01
-3.562227785587310791e-01 4.436553120613098145e-01 1.127789611928164959e-03
4.711315631866455078e-01 -8.754003047943115234e-02 2.764921188354492188e-01
-1.085959300398826599e-01 4.464502036571502686e-01 -9.301560372114181519e-02
3.190187811851501465e-01 3.181466460227966309e-01 4.184973239898681641e-02
3.500733524560928345e-02 3.656986951828002930e-01 -9.256014972925186157e-02
7.093942165374755859e-02 1.503786295652389526e-01 -8.823331445455551147e-02
2.907074987888336182e-01 2.167340368032455444e-01 2.013360522687435150e-02
-1.536304205656051636e-01 5.905764698982238770e-01 -8.709397912025451660e-02
-4.634858965873718262e-01 -1.154429465532302856e-02 1.018080189824104309e-01
-2.539579868316650391e-01 -1.648826748132705688e-01 -5.065331980586051941e-02
2.348434627056121826e-01 6.967577934265136719e-01 -1.567782461643218994e-02
-1.716907322406768799e-01 1.504773050546646118e-01 -8.390088379383087158e-02
1.613808423280715942e-01 -4.624955952167510986e-01 -5.709906667470932007e-02
-5.619223713874816895e-01 -6.661270260810852051e-01 2.861323654651641846e-01
7.042601704597473145e-01 3.865429759025573730e-01 -4.234720766544342041e-02
-3.855681717395782471e-01 7.019847035408020020e-01 3.498986735939979553e-02
-1.265981197357177734e-01 4.466026723384857178e-01 -9.073902666568756104e-02
1.432102024555206299e-01 -1.104730144143104553e-01 -6.422169506549835205e-02
3.095681965351104736e-01 -4.596252441406250000e-01 3.475303202867507935e-02
-2.999421060085296631e-01 -5.003234148025512695e-01 -3.355831280350685120e-02
6.336626410484313965e-01 4.239405095577239990e-01 -2.288733795285224915e-02
-3.091692328453063965e-01 -3.828062713146209717e-01 -3.008213639259338379e-02
-1.898049414157867432e-01 3.933921456336975098e-01 -7.956354320049285889e-02
1.160216331481933594e-01 -7.430017739534378052e-02 -7.521989941596984863e-02
1.070033237338066101e-01 -7.040634155273437500e-01 -7.682029902935028076e-02
-3.184885680675506592e-01 -6.577234715223312378e-02 -2.497822977602481842e-02
2.907074987888336182e-01 6.183113455772399902e-01 2.013360522687435150e-02
3.773379325866699219e-01 5.523862242698669434e-01 1.083203330636024475e-01
2.532977759838104248e-01 1.249609664082527161e-01 -6.818160880357027054e-03
9.794525057077407837e-02 -5.866068005561828613e-01 -8.253171294927597046e-02
6.504077911376953125e-01 2.483867853879928589e-02 -3.795591369271278381e-02
7.993381470441818237e-02 -1.999497264623641968e-01 -8.663782477378845215e-02
-4.247293472290039062e-01 -7.198457717895507812e-01 7.420670241117477417e-02
1.522842496633529663e-01 5.838650465011596680e-01 -6.100687757134437561e-02
7.139859795570373535e-01 1.968365907669067383e-01 -3.564219921827316284e-02
-4.042040109634399414e-01 -5.057752728462219238e-01 4.042940959334373474e-02
-8.160826563835144043e-02 -6.750570535659790039e-01 -9.688136726617813110e-02
-2.815163135528564453e-01 -4.998120069503784180e-01 -4.049875959753990173e-02
6.195174157619476318e-02 5.634347796440124512e-01 -8.937265723943710327e-02
-6.363482028245925903e-02 -2.264740467071533203e-01 -9.938076883554458618e-02
-2.171155512332916260e-01 -6.777167320251464844e-01 -7.041238993406295776e-02
5.735046267509460449e-01 -1.026781722903251648e-01 1.848695799708366394e-02
-4.432093203067779541e-01 -6.095610857009887695e-01 7.540210336446762085e-02
8.893463760614395142e-02 -1.191281005740165710e-01 -8.481389284133911133e-02
-3.657829165458679199e-01 6.537533998489379883e-01 9.092657826840877533e-03
-1.898049414157867432e-01 1.415828913450241089e-01 -7.956354320049285889e-02
2.439521849155426025e-01 5.697335600852966309e-01 -1.474589295685291290e-02
-5.619434118270874023e-01 3.770306110382080078e-01 2.863860130310058594e-01
-3.091692328453063965e-01 -2.948655374348163605e-02 -3.008213639259338379e-02
6.766633987426757812e-01 2.145691365003585815e-01 -4.719536006450653076e-02
2.719867527484893799e-01 2.527565360069274902e-01 7.216881494969129562e-03
4.275095462799072266e-01 6.512606739997863770e-01 1.768348813056945801e-01
3.870627880096435547e-01 5.438673496246337891e-01 1.175065264105796814e-01
3.383585810661315918e-01 2.824606597423553467e-01 6.442001461982727051e-02
8.893463760614395142e-02 -3.617542684078216553e-01 -8.481389284133911133e-02
2.069977968931198120e-01 2.510446310043334961e-01 -3.841837868094444275e-02
-8.783973171375691891e-04 -6.481471657752990723e-01 -9.688136726617813110e-02
-5.047535300254821777e-01 6.402211785316467285e-01 1.584155559539794922e-01
3.190086185932159424e-01 5.928015708923339844e-01 4.161289334297180176e-02
1.250779926776885986e-01 -5.245528817176818848e-01 -7.132890820503234863e-02
-2.447317093610763550e-01 -9.256253391504287720e-02 -5.548885464668273926e-02
7.044690847396850586e-01 -2.944561280310153961e-02 -4.026822745800018311e-02
3.578149974346160889e-01 9.907016158103942871e-02 8.689990639686584473e-02
-3.673065081238746643e-02 -2.712890207767486572e-01 -9.983482211828231812e-02
4.843633770942687988e-01 -2.696683406829833984e-01 3.349866271018981934e-01
-4.432093203067779541e-01 1.081015095114707947e-01 7.540210336446762085e-02
-4.943777918815612793e-01 1.928453892469406128e-01 1.442375779151916504e-01
-1.085913628339767456e-01 -4.869506359100341797e-01 -9.324263036251068115e-02
-5.047535300254821777e-01 1.466841995716094971e-01 1.584155559539794922e-01
1.432102024555206299e-01 -2.637066245079040527e-01 -6.422169506549835205e-02
1.613808423280715942e-01 -6.249147057533264160e-01 -5.709906667470932007e-02
-3.184885680675506592e-01 5.326046347618103027e-01 -2.497822977602481842e-02
3.676269352436065674e-01 6.808826327323913574e-01 9.891762584447860718e-02
2.161502689123153687e-01 -3.825455605983734131e-01 -3.471587225794792175e-02
-4.533449113368988037e-01 4.309745132923126221e-01 8.881982415914535522e-02
-3.753239214420318604e-01 -4.127853214740753174e-01 1.637084037065505981e-02
3.578497171401977539e-01 5.968079566955566406e-01 8.761952817440032959e-02
4.234512150287628174e-01 -1.963967680931091309e-01 1.063892021775245667e-01
-3.657694458961486816e-01 3.712695538997650146e-01 8.857923559844493866e-03
-3.091692328453063965e-01 -4.552821218967437744e-01 -3.008213639259338379e-02
2.254016548395156860e-01 6.112781912088394165e-02 -2.799474820494651794e-02
3.675791919231414795e-01 -6.207862496376037598e-01 9.795416891574859619e-02
4.262791574001312256e-01 -2.257020920515060425e-01 1.554775238037109375e-01
1.704781055450439453e-01 -2.036393247544765472e-02 -5.364741384983062744e-02
-4.042188823223114014e-01 2.357027828693389893e-01 4.066624864935874939e-02
1.887117773294448853e-01 -1.469127386808395386e-01 -4.627253487706184387e-02
3.960478305816650391e-01 -1.595650315284729004e-01 1.124271452426910400e-01
-2.777009084820747375e-02 -5.582585334777832031e-01 -9.915374219417572021e-02
-9.060202538967132568e-02 -7.021095752716064453e-01 -9.551710635423660278e-02
4.171363711357116699e-01 2.584284543991088867e-01 1.584155559539794922e-01
7.993198186159133911e-02 -2.807936370372772217e-01 -8.686625212430953979e-02
3.773994445800781250e-01 -3.999085724353790283e-01 1.095276474952697754e-01
-1.716974526643753052e-01 4.021376073360443115e-01 -8.367315679788589478e-02
5.296711996197700500e-02 -2.716637551784515381e-01 -9.051129966974258423e-02
-1.356037855148315430e-01 9.646903723478317261e-02 -8.960038423538208008e-02
1.613808423280715942e-01 -3.840125352144241333e-02 -5.709906667470932007e-02
-9.959090501070022583e-02 -8.306542038917541504e-02 -9.460759162902832031e-02
-8.161192387342453003e-02 5.089984536170959473e-01 -9.665434062480926514e-02
-1.175906136631965637e-01 -4.331746101379394531e-01 -9.210468828678131104e-02
7.993198186159133911e-02 -4.065612852573394775e-01 -8.686625212430953979e-02
1.795899569988250732e-01 6.119254827499389648e-01 -4.996172711253166199e-02
-2.539579868316650391e-01 -5.649964138865470886e-02 -5.065331980586051941e-02
-4.042040109634399414e-01 -4.600055217742919922e-01 4.042940959334373474e-02
1.613808423280715942e-01 2.593671381473541260e-01 -5.709906667470932007e-02
1.069785282015800476e-01 2.944974303245544434e-01 -7.887755334377288818e-02
3.972434103488922119e-01 3.132219612598419189e-01 1.347367614507675171e-01
-2.815268039703369141e-01 1.876544058322906494e-01 -4.026822745800018311e-02
3.675791919231414795e-01 -3.069316744804382324e-01 9.795416891574859619e-02
-4.943777918815612793e-01 -4.762523174285888672e-01 1.442375779151916504e-01
4.274385869503021240e-01 -1.164316199719905853e-02 1.756037473678588867e-01
-3.467106819152832031e-01 -1.750423014163970947e-01 -6.351493764668703079e-03
4.587706923484802246e-01 -1.772451996803283691e-01 8.018858730792999268e-02
1.613808423280715942e-01 -5.797983407974243164e-01 -5.709906667470932007e-02
3.583481609821319580e-01 -7.130963206291198730e-01 9.795416891574859619e-02
2.626081407070159912e-01 4.344486594200134277e-01 -5.097487592138350010e-04
-2.777009084820747375e-02 -4.954899251461029053e-01 -9.915374219417572021e-02
-4.840264618396759033e-01 -1.599624007940292358e-01 1.298746019601821899e-01
1.795899569988250732e-01 3.770714700222015381e-01 -4.996172711253166199e-02
6.711568236351013184e-01 5.246956348419189453e-01 -1.008482929319143295e-02
-3.091692328453063965e-01 2.785357832908630371e-01 -3.008213639259338379e-02
-2.171155512332916260e-01 -5.696513056755065918e-01 -7.041238993406295776e-02
3.578265607357025146e-01 3.571364581584930420e-01 8.713954687118530273e-02
-1.898049414157867432e-01 6.064419448375701904e-02 -7.956354320049285889e-02
3.286675214767456055e-01 6.763300895690917969e-01 5.299788713455200195e-02
-5.619223713874816895e-01 -5.238801836967468262e-01 2.861323654651641846e-01
-5.500410199165344238e-01 6.682025194168090820e-01 2.567870020866394043e-01
-2.079984247684478760e-01 -2.003334760665893555e-01 -7.361809164285659790e-02
9.794525057077407837e-02 -3.708657920360565186e-01 -8.253171294927597046e-02
-3.945401012897491455e-01 -1.211653128266334534e-01 3.215483203530311584e-02
-4.235085844993591309e-01 6.490663290023803711e-01 5.561150237917900085e-02
4.382006525993347168e-01 2.693488001823425293e-01 1.998115926980972290e-01
-2.999421060085296631e-01 4.413782656192779541e-01 -3.355831280350685120e-02
-4.635030329227447510e-01 -1.870381534099578857e-01 1.020490601658821106e-01
-2.447132170200347900e-01 2.413621693849563599e-01 -5.594921857118606567e-02
-4.533281922340393066e-01 -1.129295825958251953e-01 8.857948333024978638e-02
-4.235242307186126709e-01 2.637555003166198730e-01 5.584973841905593872e-02
7.993564754724502563e-02 5.547008514404296875e-01 -8.641009032726287842e-02
-3.562227785587310791e-01 4.800603985786437988e-01 1.127789611928164959e-03
2.603155933320522308e-02 2.040996849536895752e-01 -9.369808435440063477e-02
-3.848996162414550781e-01 -2.123395949602127075e-01 2.390057407319545746e-02
-4.533616304397583008e-01 4.678660333156585693e-01 8.906016498804092407e-02
4.398554936051368713e-02 1.054158210754394531e-01 -9.164993464946746826e-02
-5.270614027976989746e-01 5.132871270179748535e-01 2.050205916166305542e-01
7.994481176137924194e-02 6.895786523818969727e-01 -8.527005463838577271e-02
3.286780118942260742e-01 -1.123613566160202026e-01 5.323542281985282898e-02
-2.539484202861785889e-01 -4.177622497081756592e-01 -5.088384822010993958e-02
-2.814636528491973877e-01 -6.806063652038574219e-01 -4.165421426296234131e-02
8.893891423940658569e-02 5.998051762580871582e-01 -8.435773849487304688e-02
-2.447224706411361694e-01 1.059934943914413452e-01 -5.571868643164634705e-02
-1.898049414157867432e-01 -6.048517227172851562e-01 -7.956354320049285889e-02
1.978494673967361450e-01 1.785528659820556641e-01 -4.234720766544342041e-02
-1.176101192831993103e-01 -7.025613188743591309e-01 -9.119448065757751465e-02
6.766633987426757812e-01 1.513132899999618530e-01 -4.719536006450653076e-02
-3.372319638729095459e-01 -5.290401577949523926e-01 -1.358132716268301010e-02
-2.079984247684478760e-01 4.027437865734100342e-01 -7.361809164285659790e-02
8.893891423940658569e-02 5.458845496177673340e-01 -8.435773849487304688e-02
-3.562359511852264404e-01 -4.664900600910186768e-01 1.361823757179081440e-03
6.504077911376953125e-01 2.058173120021820068e-01 -3.795591369271278381e-02
7.999803125858306885e-02 -7.128667831420898438e-01 -7.864912599325180054e-02
9.794525057077407837e-02 5.162714421749114990e-02 -8.253171294927597046e-02
4.587706923484802246e-01 5.317103862762451172e-01 8.018858730792999268e-02
-4.840264618396759033e-01 -3.940324112772941589e-02 1.298746019601821899e-01
-3.091692328453063965e-01 5.865581035614013672e-01 -3.008213639259338379e-02
-2.079984247684478760e-01 -4.163611829280853271e-01 -7.361809164285659790e-02
6.676926612854003906e-01 1.061416491866111755e-01 -4.650306701660156250e-02
-3.372194468975067139e-01 -3.473965525627136230e-01 -1.381466072052717209e-02
8.893677592277526855e-02 3.930961489677429199e-01 -8.458546549081802368e-02
-3.753377795219421387e-01 4.902815818786621094e-01 1.660627499222755432e-02
1.250746101140975952e-01 6.695798598229885101e-03 -7.155733555555343628e-02
7.993198186159133911e-02 -6.221629977226257324e-01 -8.686625212430953979e-02
-4.533281922340393066e-01 2.281533181667327881e-01 8.857948333024978638e-02
-4.138760566711425781e-01 -3.139093816280364990e-01 4.848677292466163635e-02
6.282519698143005371e-01 2.896775007247924805e-01 1.848695799708366394e-02
6.418017745018005371e-01 3.055769801139831543e-01 -3.309515118598937988e-02
-1.265929192304611206e-01 6.951516121625900269e-02 -9.096675366163253784e-02
-4.431929886341094971e-01 -4.715326726436614990e-01 7.516316324472427368e-02
-1.175906136631965637e-01 2.221015393733978271e-01 -9.210468828678131104e-02
-2.723379731178283691e-01 5.040159225463867188e-01 -4.350266233086585999e-02
9.794525057077407837e-02 -3.259197473526000977e-01 -8.253171294927597046e-02
4.273818731307983398e-01 2.030339092016220093e-01 1.746192723512649536e-01
5.411689281463623047e-01 -9.429692476987838745e-02 7.396776974201202393e-02
4.261522889137268066e-01 -1.139696985483169556e-01 1.532752215862274170e-01
-5.383983254432678223e-01 -1.810442358255386353e-01 2.294330298900604248e-01
1.250779926776885986e-01 -6.055909395217895508e-01 -7.132890820503234863e-02
3.675911128520965576e-01 -6.692749261856079102e-02 9.819521009922027588e-02
-4.432093203067779541e-01 3.657239973545074463e-01 7.540210336446762085e-02
6.336417198181152344e-01 7.024234533309936523e-02 -2.311997115612030029e-02
3.972042500972747803e-01 -2.899669706821441650e-01 1.340066343545913696e-01
8.893677592277526855e-02 1.566480472683906555e-02 -8.458546549081802368e-02
-9.844732470810413361e-03 -1.637514233589172363e-01 -9.756315499544143677e-02
-1.880772039294242859e-02 -5.762508511543273926e-01 -9.847196191549301147e-02
-3.091692328453063965e-01 -6.364717483520507812e-01 -3.008213639259338379e-02
2.069977968931198120e-01 1.786581277847290039e-01 -3.841837868094444275e-02
-4.635201394557952881e-01 3.764017224311828613e-01 1.022901013493537903e-01
-3.091692328453063965e-01 5.593796968460083008e-01 -3.008213639259338379e-02
-2.079984247684478760e-01 5.169879645109176636e-02 -7.361809164285659790e-02
4.071259796619415283e-01 3.601963222026824951e-01 1.457013338804244995e-01
-9.845950640738010406e-03 5.179157257080078125e-01 -9.733612835407257080e-02
-2.447317093610763550e-01 -7.451165467500686646e-02 -5.548885464668273926e-02
7.248094081878662109e-01 2.064177542924880981e-01 -1.847011782228946686e-02
6.868298649787902832e-01 4.774495065212249756e-01 -3.564219921827316284e-02
-9.959516674280166626e-02 -3.791882395744323730e-01 -9.438056498765945435e-02
-5.465449765324592590e-02 1.680291146039962769e-01 -1.005159094929695129e-01
1.069785282015800476e-01 6.632558107376098633e-01 -7.887755334377288818e-02
8.893677592277526855e-02 1.324888020753860474e-01 -8.458546549081802368e-02
3.965017795562744141e-01 5.256118774414062500e-01 1.208972185850143433e-01
-1.536304205656051636e-01 -6.221418976783752441e-01 -8.709397912025451660e-02
-5.383380651473999023e-01 -5.854900479316711426e-01 2.286832779645919800e-01
-2.079984247684478760e-01 -4.433646500110626221e-01 -7.361809164285659790e-02
-5.270614027976989746e-01 3.632957637310028076e-01 2.050205916166305542e-01
2.907257676124572754e-01 -6.229705214500427246e-01 2.060447633266448975e-02
-4.235242307186126709e-01 -6.904036402702331543e-01 5.584973841905593872e-02
1.705883070826530457e-02 -1.368990242481231689e-01 -9.483532607555389404e-02
-1.265981197357177734e-01 3.388640880584716797e-01 -9.073902666568756104e-02
-1.716840118169784546e-01 -1.820495426654815674e-01 -8.412931114435195923e-02
1.887117773294448853e-01 2.869011461734771729e-01 -4.627253487706184387e-02
-4.431929886341094971e-01 -3.243249952793121338e-01 7.516316324472427368e-02
1.250746101140975952e-01 -9.234725683927536011e-02 -7.155733555555343628e-02
-4.533449113368988037e-01 3.848806023597717285e-01 8.881982415914535522e-02
-4.533281922340393066e-01 8.987645059823989868e-02 8.857948333024978638e-02
3.189883232116699219e-01 -6.797706484794616699e-01 4.113922268152236938e-02
1.432142108678817749e-01 -3.718841671943664551e-01 -6.399186700582504272e-02
3.383585810661315918e-01 3.835076093673706055e-01 6.442001461982727051e-02
-3.754625320434570312e-01 6.911817193031311035e-01 1.872239261865615845e-02
8.088541217148303986e-03 -9.202320128679275513e-02 -9.574483335018157959e-02
-9.059805423021316528e-02 1.143215000629425049e-01 -9.574483335018157959e-02
7.093789428472518921e-02 -1.819334626197814941e-01 -8.846104890108108521e-02
4.491130411624908447e-01 -2.373533546924591064e-01 2.254362255334854126e-01
-2.447224706411361694e-01 1.691694408655166626e-01 -5.571868643164634705e-02
-2.079984247684478760e-01 1.597126573324203491e-01 -7.361809164285659790e-02
2.346714138984680176e-01 -4.830868840217590332e-01 -2.126101031899452209e-02
-2.354740053415298462e-01 5.567727684974670410e-01 -6.146653741598129272e-02
-4.539477229118347168e-01 -7.130466699600219727e-01 9.747278690338134766e-02
6.336626410484313965e-01 3.151110708713531494e-01 -2.288733795285224915e-02
8.893677592277526855e-02 4.290419220924377441e-01 -8.458546549081802368e-02
7.093789428472518921e-02 5.994368195533752441e-01 -8.846104890108108521e-02
-5.270810723304748535e-01 2.226868420839309692e-01 2.052686512470245361e-01
2.253948003053665161e-01 3.148606717586517334e-01 -2.822738140821456909e-02
-2.907353043556213379e-01 6.040741801261901855e-01 -3.679905831813812256e-02
-1.356037855148315430e-01 3.299423158168792725e-01 -8.960038423538208008e-02
-3.467234671115875244e-01 -5.114369392395019531e-01 -6.118160206824541092e-03
3.500702977180480957e-02 1.564282737672328949e-02 -9.278787672519683838e-02
9.794525057077407837e-02 -1.461354941129684448e-01 -8.253171294927597046e-02
-1.716974526643753052e-01 2.493469864130020142e-01 -8.367315679788589478e-02
1.704781055450439453e-01 -3.002291321754455566e-01 -5.364741384983062744e-02
2.719528377056121826e-01 -6.854227781295776367e-01 6.279343273490667343e-03
4.711634218692779541e-01 3.386439681053161621e-01 2.769986987113952637e-01
-4.840264618396759033e-01 -6.722459197044372559e-02 1.298746019601821899e-01
-5.047535300254821777e-01 5.750371217727661133e-01 1.584155559539794922e-01
-1.536304205656051636e-01 -5.143446922302246094e-01 -8.709397912025451660e-02
6.417806744575500488e-01 4.232831895351409912e-01 -3.332638368010520935e-02
6.539992094039916992e-01 -1.479237973690032959e-01 8.937554666772484779e-04
-3.657694458961486816e-01 -5.581188201904296875e-01 8.857923559844493866e-03
4.843468070030212402e-01 -3.937857747077941895e-01 3.347294628620147705e-01
-4.432093203067779541e-01 -4.831213504076004028e-02 7.540210336446762085e-02
-1.988823711872100830e-01 -2.030122652649879456e-02 -7.704942673444747925e-02
2.603155933320522308e-02 -5.048491358757019043e-01 -9.392511099576950073e-02
5.296711996197700500e-02 1.682837754487991333e-01 -9.051129966974258423e-02
4.504952430725097656e-01 -1.960849910974502563e-01 9.530761837959289551e-02
1.978494673967361450e-01 1.875958889722824097e-01 -4.234720766544342041e-02
-1.176003664731979370e-01 6.081275939941406250e-01 -9.164993464946746826e-02
-1.807413995265960693e-01 -4.967652261257171631e-01 -8.184713125228881836e-02
-1.716772615909576416e-01 -6.763154268264770508e-01 -8.435773849487304688e-02
-4.433400928974151611e-01 -7.017639279365539551e-01 7.731571793556213379e-02
4.711315631866455078e-01 -2.308115595951676369e-03 2.764921188354492188e-01
3.095681965351104736e-01 -4.413325190544128418e-01 3.475303202867507935e-02
6.276079416275024414e-01 1.070694029331207275e-01 1.120387017726898193e-02
-3.562227785587310791e-01 -2.298404574394226074e-01 1.127789611928164959e-03
-5.047535300254821777e-01 -5.818023160099983215e-02 1.584155559539794922e-01
1.432142108678817749e-01 -5.341370105743408203e-01 -6.399186700582504272e-02
-1.265929192304611206e-01 -1.639105081558227539e-01 -9.096675366163253784e-02
-6.363786011934280396e-02 4.550058841705322266e-01 -9.915374219417572021e-02
2.603155933320522308e-02 1.771708428859710693e-01 -9.392511099576950073e-02
2.813250124454498291e-01 -4.034835398197174072e-01 1.331648416817188263e-02
-2.631579339504241943e-01 5.760708451271057129e-01 -4.673359543085098267e-02
3.873539865016937256e-01 1.551914066076278687e-01 1.230792030692100525e-01
-2.447132170200347900e-01 4.308834671974182129e-01 -5.594921857118606567e-02
-2.999421060085296631e-01 -3.735558688640594482e-01 -3.355831280350685120e-02
-3.673065081238746643e-02 -6.507033109664916992e-02 -9.983482211828231812e-02
-2.447132170200347900e-01 2.864862978458404541e-01 -5.594921857118606567e-02
2.439671456813812256e-01 -2.565663158893585205e-01 -1.428062655031681061e-02
6.336417198181152344e-01 1.881368607282638550e-01 -2.311997115612030029e-02
4.058700203895568848e-01 5.998747348785400391e-01 1.228360608220100403e-01
-4.737353622913360596e-01 -7.634765654802322388e-02 1.158129349350929260e-01
-3.657694458961486816e-01 -3.941091001033782959e-01 8.857923559844493866e-03
-4.042040109634399414e-01 3.913116753101348877e-01 4.042940959334373474e-02
9.794525057077407837e-02 4.201848208904266357e-01 -8.253171294927597046e-02
1.705883070826530457e-02 -5.614448338747024536e-02 -9.483532607555389404e-02
6.195174157619476318e-02 -1.280287653207778931e-01 -8.937265723943710327e-02
3.383585810661315918e-01 -8.498293161392211914e-02 6.442001461982727051e-02
-5.392838716506958008e-01 -7.089523673057556152e-01 2.404494434595108032e-01
-2.631282806396484375e-01 -6.348451972007751465e-01 -4.742588847875595093e-02
1.978435814380645752e-01 3.865296542644500732e-01 -4.257844015955924988e-02
3.095583915710449219e-01 -2.308115595951676369e-03 3.451689705252647400e-02
1.160308271646499634e-01 6.906862258911132812e-01 -7.453320920467376709e-02
-2.907244563102722168e-01 -5.181678533554077148e-01 -3.703028708696365356e-02
1.250746101140975952e-01 4.298797547817230225e-01 -7.155733555555343628e-02
-4.840443730354309082e-01 3.872043788433074951e-01 1.301177442073822021e-01
-5.500410199165344238e-01 5.454329848289489746e-01 2.567870020866394043e-01
-1.807484328746795654e-01 4.472136199474334717e-01 -8.161869645118713379e-02
4.398493841290473938e-02 -6.306763887405395508e-01 -9.187766164541244507e-02
-3.372194468975067139e-01 -2.020961493253707886e-01 -1.381466072052717209e-02
4.683168828487396240e-01 5.874057412147521973e-01 8.546066284179687500e-02
-1.988823711872100830e-01 -4.341427683830261230e-01 -7.704942673444747925e-02
-8.793114684522151947e-04 4.551766812801361084e-01 -9.665434062480926514e-02
-2.171155512332916260e-01 -6.236840486526489258e-01 -7.041238993406295776e-02
-3.562096059322357178e-01 2.525193393230438232e-01 8.937554666772484779e-04
-4.943777918815612793e-01 -6.735929101705551147e-02 1.442375779151916504e-01
2.161502689123153687e-01 -5.455045104026794434e-01 -3.471587225794792175e-02
3.190187811851501465e-01 3.639259338378906250e-01 4.184973239898681641e-02
2.813162207603454590e-01 1.435688287019729614e-01 1.308174896985292435e-02
2.907074987888336182e-01 9.808621555566787720e-02 2.013360522687435150e-02
-3.562227785587310791e-01 -4.118663072586059570e-01 1.127789611928164959e-03
4.273535609245300293e-01 -3.756309151649475098e-01 1.741273701190948486e-01
-3.277976512908935547e-01 -5.194430947303771973e-01 -2.033118158578872681e-02
3.286780118942260742e-01 1.536006778478622437e-01 5.323542281985282898e-02
-4.635201394557952881e-01 -4.826230108737945557e-01 1.022901013493537903e-01
2.439596652984619141e-01 -4.472447335720062256e-01 -1.451325975358486176e-02
-3.657694458961486816e-01 -4.943372309207916260e-01 8.857923559844493866e-03
-1.356037855148315430e-01 3.568815588951110840e-01 -8.960038423538208008e-02
4.844462275505065918e-01 3.797041773796081543e-01 3.362752199172973633e-01
1.341448277235031128e-01 -4.707989692687988281e-01 -6.743300706148147583e-02
-1.085913628339767456e-01 -4.331014454364776611e-01 -9.324263036251068115e-02
7.248094081878662109e-01 3.062431812286376953e-01 -1.847011782228946686e-02
-5.384385585784912109e-01 2.893347740173339844e-01 2.299333214759826660e-01
4.275095462799072266e-01 6.605973243713378906e-01 1.768348813056945801e-01
-4.737353622913360596e-01 -9.485753625631332397e-02 1.158129349350929260e-01
-5.824553370475769043e-01 -6.977217793464660645e-01 4.170491993427276611e-01
1.160246953368186951e-01 -5.422669649124145508e-01 -7.499077171087265015e-02
1.887062191963195801e-01 -5.807068347930908203e-01 -4.650306701660156250e-02
-1.266032904386520386e-01 6.351668238639831543e-01 -9.051129966974258423e-02
-6.363482028245925903e-02 -1.457743048667907715e-01 -9.938076883554458618e-02
-6.363482028245925903e-02 2.308244556188583374e-01 -9.938076883554458618e-02
-4.138607680797576904e-01 1.901448071002960205e-01 4.824923351407051086e-02
-2.354740053415298462e-01 5.657901763916015625e-01 -6.146653741598129272e-02
-3.562227785587310791e-01 5.619720816612243652e-01 1.127789611928164959e-03
-3.091692328453063965e-01 4.869038462638854980e-01 -3.008213639259338379e-02
7.993198186159133911e-02 -4.245280921459197998e-01 -8.686625212430953979e-02
6.978611946105957031e-01 -1.021746769547462463e-01 -1.567782461643218994e-02
1.250746101140975952e-01 4.929071962833404541e-01 -7.155733555555343628e-02
4.071528315544128418e-01 8.135264366865158081e-02 1.461897194385528564e-01
3.480933010578155518e-01 6.878241300582885742e-01 7.611961662769317627e-02
-1.807413995265960693e-01 5.163264647126197815e-02 -8.184713125228881836e-02
-1.716907322406768799e-01 -1.101566255092620850e-01 -8.390088379383087158e-02
7.093942165374755859e-02 6.954445689916610718e-02 -8.823331445455551147e-02
-1.898049414157867432e-01 -2.271378040313720703e-01 -7.956354320049285889e-02
2.532742917537689209e-01 -3.658964931964874268e-01 -7.518861908465623856e-03
-3.657559156417846680e-01 -3.485388755798339844e-01 8.623188361525535583e-03
2.603155933320522308e-02 6.665831431746482849e-03 -9.392511099576950073e-02
-7.261819392442703247e-02 -3.341300189495086670e-01 -9.824493527412414551e-02
5.296711996197700500e-02 2.760260403156280518e-01 -9.051129966974258423e-02
6.198106333613395691e-02 6.987072825431823730e-01 -8.390088379383087158e-02
3.675791919231414795e-01 -5.746311545372009277e-01 9.795416891574859619e-02
2.907166481018066406e-01 -3.947722315788269043e-01 2.036903984844684601e-02
-4.432093203067779541e-01 -6.647658944129943848e-01 7.540210336446762085e-02
-8.793114684522151947e-04 4.372361600399017334e-01 -9.665434062480926514e-02
2.532742917537689209e-01 -5.658701062202453613e-01 -7.518861908465623856e-03
-2.723175585269927979e-01 -2.644936740398406982e-01 -4.396442696452140808e-02
-1.716907322406768799e-01 -3.825762122869491577e-02 -8.390088379383087158e-02
-8.160826563835144043e-02 -4.687473773956298828e-01 -9.688136726617813110e-02
-2.631381452083587646e-01 -2.038121968507766724e-02 -4.719536006450653076e-02
-3.467106819152832031e-01 -1.139938831329345703e-02 -6.351493764668703079e-03
-2.999421060085296631e-01 2.240624725818634033e-01 -3.355831280350685120e-02
-5.384587049484252930e-01 3.928350508213043213e-01 2.301834672689437866e-01
9.794525057077407837e-02 -3.438981473445892334e-01 -8.253171294927597046e-02
4.711794257164001465e-01 4.144260585308074951e-01 2.772523760795593262e-01
-9.059805423021316528e-02 -4.598550498485565186e-01 -9.574483335018157959e-02
1.432102024555206299e-01 1.689529865980148315e-01 -6.422169506549835205e-02
-3.467106819152832031e-01 -2.958193235099315643e-02 -6.351493764668703079e-03
-4.432093203067779541e-01 -6.831675171852111816e-01 7.540210336446762085e-02
-1.446125209331512451e-01 2.042610347270965576e-01 -8.846104890108108521e-02
2.603155933320522308e-02 6.348853707313537598e-01 -9.347035735845565796e-02
-2.447224706411361694e-01 7.891808450222015381e-02 -5.571868643164634705e-02
-6.363482028245925903e-02 -5.313397049903869629e-01 -9.938076883554458618e-02
-3.945255279541015625e-01 7.083224505186080933e-02 3.191869705915451050e-02
-4.533616304397583008e-01 6.061525940895080566e-01 8.906016498804092407e-02
-3.657559156417846680e-01 -3.394275307655334473e-01 8.623188361525535583e-03
-3.753239214420318604e-01 -3.580549955368041992e-01 1.637084037065505981e-02
1.705913618206977844e-02 -5.765432119369506836e-01 -9.506235271692276001e-02
3.001182675361633301e-01 -6.875247955322265625e-01 2.719947509467601776e-02
1.978435814380645752e-01 -4.273168146610260010e-01 -4.257844015955924988e-02
-8.783973171375691891e-04 -5.315372943878173828e-01 -9.688136726617813110e-02
3.675791919231414795e-01 -1.130803003907203674e-01 9.795416891574859619e-02
4.171777367591857910e-01 4.726550579071044922e-01 1.591506004333496094e-01
-2.354740053415298462e-01 6.018599271774291992e-01 -6.146653741598129272e-02
2.603155933320522308e-02 5.900126099586486816e-01 -9.347035735845565796e-02
1.250746101140975952e-01 4.271145910024642944e-02 -7.155733555555343628e-02
-4.533281922340393066e-01 1.359687596559524536e-01 8.857948333024978638e-02
-5.152291059494018555e-01 -6.835500597953796387e-01 1.733895391225814819e-01
1.613762229681015015e-01 4.849326610565185547e-01 -5.732889845967292786e-02
5.296711996197700500e-02 -3.614489436149597168e-01 -9.051129966974258423e-02
3.773625195026397705e-01 -1.132547184824943542e-01 1.088031232357025146e-01
-6.363786011934280396e-02 6.433117389678955078e-01 -9.915374219417572021e-02
8.893463760614395142e-02 -1.460865736007690430e-01 -8.481389284133911133e-02
-3.466978371143341064e-01 1.158743724226951599e-01 -6.584827322512865067e-03
7.093789428472518921e-02 -2.807274162769317627e-01 -8.846104890108108521e-02
-6.363482028245925903e-02 2.846242785453796387e-01 -9.938076883554458618e-02
-9.959516674280166626e-02 -4.420016705989837646e-01 -9.438056498765945435e-02
1.887062191963195801e-01 3.863035440444946289e-01 -4.650306701660156250e-02
9.794525057077407837e-02 -6.135745048522949219e-01 -8.253171294927597046e-02
1.704781055450439453e-01 4.761709868907928467e-01 -5.364741384983062744e-02
-1.265981197357177734e-01 -2.896110117435455322e-01 -9.073902666568756104e-02
-2.999421060085296631e-01 5.202081426978111267e-02 -3.355831280350685120e-02
7.043762207031250000e-01 9.718244522809982300e-02 -4.119245335459709167e-02
-2.354918718338012695e-01 -1.736510396003723145e-01 -6.100687757134437561e-02
9.794525057077407837e-02 1.415192633867263794e-01 -8.253171294927597046e-02
1.432062238454818726e-01 4.303367435932159424e-01 -6.445082277059555054e-02
-5.270417928695678711e-01 -3.585248887538909912e-01 2.047725468873977661e-01
4.600591063499450684e-01 -5.306894779205322266e-01 2.504940032958984375e-01
-7.262154668569564819e-02 -7.018482685089111328e-01 -9.801790863275527954e-02
-1.265981197357177734e-01 -3.793931305408477783e-01 -9.073902666568756104e-02
1.522885560989379883e-01 -2.548221051692962646e-01 -6.077704578638076782e-02
3.774485588073730469e-01 2.011438608169555664e-01 1.104939132928848267e-01
4.593444168567657471e-01 5.877348780632019043e-01 8.929980546236038208e-02
-3.278098404407501221e-01 -2.744937837123870850e-01 -2.009854838252067566e-02
2.439596652984619141e-01 -6.470121145248413086e-01 -1.451325975358486176e-02
-1.880772039294242859e-02 -4.776044189929962158e-01 -9.847196191549301147e-02
-2.447502166032791138e-01 -5.438716411590576172e-01 -5.502849444746971130e-02
-2.354740053415298462e-01 6.469471454620361328e-01 -6.146653741598129272e-02
6.970312595367431641e-01 4.873403012752532959e-01 -2.404910139739513397e-02
-3.753377795219421387e-01 1.436443924903869629e-01 1.660627499222755432e-02
-1.085867881774902344e-01 2.461555227637290955e-02 -9.347035735845565796e-02
-1.175906136631965637e-01 1.323376893997192383e-01 -9.210468828678131104e-02
-2.777191996574401855e-02 4.550214707851409912e-01 -9.892601519823074341e-02
3.873286247253417969e-01 1.088602170348167419e-01 1.225943192839622498e-01
-3.849138021469116211e-01 2.077306210994720459e-01 2.413600869476795197e-02
4.382152855396270752e-01 1.756803244352340698e-01 2.000596374273300171e-01
1.160216331481933594e-01 2.946591377258300781e-01 -7.521989941596984863e-02
7.093789428472518921e-02 3.838863968849182129e-01 -8.846104890108108521e-02
-1.536304205656051636e-01 5.007454752922058105e-01 -8.709397912025451660e-02
3.383477330207824707e-01 -5.442684888839721680e-01 6.418177485466003418e-02
-4.332250356674194336e-01 -4.891200363636016846e-01 6.370529532432556152e-02
8.088541217148303986e-03 1.681505590677261353e-01 -9.574483335018157959e-02
-3.372069895267486572e-01 3.427684903144836426e-01 -1.404729392379522324e-02
-4.138607680797576904e-01 2.634602189064025879e-01 4.824923351407051086e-02
3.578149974346160889e-01 1.820160299539566040e-01 8.689990639686584473e-02
1.705883070826530457e-02 1.053646132349967957e-01 -9.483532607555389404e-02
1.069785282015800476e-01 1.505917161703109741e-01 -7.887755334377288818e-02
4.274528324604034424e-01 -6.765576452016830444e-02 1.758504062891006470e-01
-1.880923844873905182e-02 4.281635284423828125e-01 -9.824493527412414551e-02
-9.845950640738010406e-03 4.461607635021209717e-01 -9.733612835407257080e-02
-4.635201394557952881e-01 3.671649098396301270e-01 1.022901013493537903e-01
-9.059805423021316528e-02 -5.613717064261436462e-02 -9.574483335018157959e-02
1.160216331481933594e-01 -8.329918980598449707e-02 -7.521989941596984863e-02
-1.536304205656051636e-01 1.863369792699813843e-01 -8.709397912025451660e-02
-3.657829165458679199e-01 -5.854738354682922363e-01 9.092657826840877533e-03
-4.042338430881500244e-01 -9.385393559932708740e-02 4.090308398008346558e-02
6.276494860649108887e-01 -1.663857102394104004e-01 1.167334057390689850e-02
2.161893546581268311e-01 5.138345360755920410e-01 -3.332638368010520935e-02
-7.261819392442703247e-02 1.562820374965667725e-02 -9.824493527412414551e-02
-6.363482028245925903e-02 -1.726742386817932129e-01 -9.938076883554458618e-02
-2.777009084820747375e-02 -4.237543940544128418e-01 -9.915374219417572021e-02
3.873539865016937256e-01 1.459267288446426392e-01 1.230792030692100525e-01
5.927321910858154297e-01 4.729891419410705566e-01 3.026644326746463776e-02
2.907166481018066406e-01 -8.445177227258682251e-02 2.036903984844684601e-02
2.603155933320522308e-02 -1.907609999179840088e-01 -9.392511099576950073e-02
3.383585810661315918e-01 2.732745707035064697e-01 6.442001461982727051e-02
6.513286828994750977e-01 5.051794052124023438e-01 -2.799474820494651794e-02
3.972564339637756348e-01 2.204267978668212891e-01 1.349799036979675293e-01
2.254016548395156860e-01 1.426883190870285034e-01 -2.799474820494651794e-02
1.161321029067039490e-01 7.004761099815368652e-01 -6.697404384613037109e-02
3.383477330207824707e-01 -5.258969664573669434e-01 6.418177485466003418e-02
4.843633770942687988e-01 -2.410226017236709595e-01 3.349866271018981934e-01
3.873160183429718018e-01 -2.894828915596008301e-01 1.223518773913383484e-01
1.795899569988250732e-01 3.861043155193328857e-01 -4.996172711253166199e-02
1.704781055450439453e-01 3.046407997608184814e-01 -5.364741384983062744e-02
1.613808423280715942e-01 3.315534293651580811e-01 -5.709906667470932007e-02
1.978435814380645752e-01 -6.895562410354614258e-01 -4.257844015955924988e-02
-2.815163135528564453e-01 -5.812216997146606445e-01 -4.049875959753990173e-02
-1.988823711872100830e-01 -2.452151328325271606e-01 -7.704942673444747925e-02
1.613808423280715942e-01 3.495999574661254883e-01 -5.709906667470932007e-02
-3.091692328453063965e-01 -3.284494280815124512e-01 -3.008213639259338379e-02
-3.278098404407501221e-01 -2.019109278917312622e-01 -2.009854838252067566e-02
3.972434103488922119e-01 -4.663228988647460938e-01 1.347367614507675171e-01
-1.086005046963691711e-01 6.349502801895141602e-01 -9.278787672519683838e-02
1.069785282015800476e-01 -6.678720116615295410e-01 -7.887755334377288818e-02
-3.094107210636138916e-01 6.957744359970092773e-01 -2.521016262471675873e-02
3.095485866069793701e-01 6.653288006782531738e-01 3.428075835108757019e-02
2.813338339328765869e-01 -6.770356297492980957e-01 1.355191972106695175e-02
4.762908518314361572e-01 5.490298271179199219e-01 6.656625866889953613e-02
3.500702977180480957e-02 7.847111672163009644e-02 -9.278787672519683838e-02
3.383477330207824707e-01 -5.534543395042419434e-01 6.418177485466003418e-02
-1.880923844873905182e-02 -2.534165680408477783e-01 -9.824493527412414551e-02
-7.262154668569564819e-02 3.653989136219024658e-01 -9.801790863275527954e-02
6.195174157619476318e-02 1.683127582073211670e-01 -8.937265723943710327e-02
6.590665578842163086e-01 2.418625354766845703e-01 -4.211667552590370178e-02
5.296711996197700500e-02 4.825320541858673096e-01 -9.051129966974258423e-02
-2.262499779462814331e-01 -1.464689821004867554e-01 -6.697404384613037109e-02
-3.278219699859619141e-01 3.398455306887626648e-02 -1.986591517925262451e-02
-3.657559156417846680e-01 1.616959422826766968e-01 8.623188361525535583e-03
3.001277446746826172e-01 -6.692755222320556641e-01 2.743561007082462311e-02
-1.898123174905776978e-01 5.912625789642333984e-01 -7.933441549539566040e-02
-1.175954863429069519e-01 3.208527565002441406e-01 -9.187766164541244507e-02
-3.673065081238746643e-02 4.370273947715759277e-01 -9.983482211828231812e-02
-1.085913628339767456e-01 -1.997550725936889648e-01 -9.324263036251068115e-02
-1.356037855148315430e-01 -3.822707757353782654e-02 -8.960038423538208008e-02
3.383585810661315918e-01 -2.986638061702251434e-02 6.442001461982727051e-02
-2.999421060085296631e-01 -1.109659746289253235e-01 -3.355831280350685120e-02
3.773870766162872314e-01 -2.308115595951676369e-03 1.092859059572219849e-01
-9.040002478286623955e-04 -7.116112709045410156e-01 -9.051129966974258423e-02
