-5.833559669554233551e-03 -4.237595200538635254e-02 -6.007850170135498047e-03
3.372227307409048080e-03 4.124219715595245361e-02 -5.968749523162841797e-03
-1.741728000342845917e-02 1.523055601865053177e-02 -2.982556819915771484e-03
4.326165094971656799e-02 -5.113710463047027588e-02 2.412694692611694336e-02
-2.765103708952665329e-03 2.894493378698825836e-02 -6.437420845031738281e-03
-2.370082400739192963e-02 -2.012473996728658676e-04 1.746416091918945312e-04
-1.199030689895153046e-02 3.825035691261291504e-02 -4.774093627929687500e-03
-3.593480214476585388e-02 1.872414909303188324e-02 1.089137792587280273e-02
1.729487441480159760e-02 -7.137367967516183853e-03 -2.705991268157958984e-03
-3.593596443533897400e-02 -3.498044610023498535e-02 1.091206073760986328e-02
-1.231869915500283241e-03 2.882780507206916809e-03 -6.378889083862304688e-03
2.603778615593910217e-03 -3.316469490528106689e-02 -6.105542182922363281e-03
5.676031578332185745e-03 1.349546597339212894e-03 -5.812346935272216797e-03
5.676320288330316544e-03 -3.471835330128669739e-02 -5.792796611785888672e-03
-2.765103708952665329e-03 -9.501470485702157021e-04 -6.417930126190185547e-03
2.603595145046710968e-03 -5.617222562432289124e-02 -6.125092506408691406e-03
2.442162297666072845e-02 -4.991685599088668823e-02 1.194715499877929688e-03
1.885650679469108582e-02 -3.571607172489166260e-02 -2.211332321166992188e-03
-1.430608145892620087e-02 -2.634880132973194122e-02 -4.302680492401123047e-03
-2.608332410454750061e-02 -3.751415386795997620e-02 1.575648784637451172e-03
4.324677586555480957e-02 2.637355402112007141e-02 2.393215894699096680e-02
1.339724287390708923e-02 3.367424011230468750e-02 -4.125714302062988281e-03
4.908917937427759171e-03 -2.857913635671138763e-02 -5.792796611785888672e-03
3.512314707040786743e-02 -4.995746165513992310e-02 1.058083772659301758e-02
-4.310612380504608154e-02 5.217922851443290710e-02 2.362936735153198242e-02
2.281946688890457153e-02 4.709165170788764954e-02 9.477138519287109375e-05
-1.663707010447978973e-02 3.217614069581031799e-02 -3.357529640197753906e-03
-3.774387389421463013e-02 -3.115828149020671844e-03 -2.308934926986694336e-02
-1.819956861436367035e-02 4.996810480952262878e-02 -2.567529678344726562e-03
2.361932769417762756e-02 5.567043274641036987e-02 6.341934204101562500e-04
2.441786415874958038e-02 4.950223490595817566e-02 1.114547252655029297e-03
-4.292024299502372742e-02 3.183770552277565002e-02 -2.354878187179565430e-02
-3.679869696497917175e-02 -1.816368778236210346e-03 1.217830181121826172e-02
2.603961620479822159e-03 -1.705867610871791840e-02 -6.085991859436035156e-03
-4.064803570508956909e-02 2.809044159948825836e-02 -2.415412664413452148e-02
8.748287335038185120e-03 -4.623913764953613281e-02 -5.675435066223144531e-03
-1.044830679893493652e-02 3.054571524262428284e-02 -5.107522010803222656e-03
-2.688645571470260620e-02 -3.989017754793167114e-02 2.198219299316406250e-03
-3.260801360011100769e-02 1.627100259065628052e-02 7.596015930175781250e-03
-1.121922768652439117e-02 5.130572617053985596e-02 -4.931032657623291016e-03
-6.601590663194656372e-03 -2.166937664151191711e-02 -5.870997905731201172e-03
1.573528721928596497e-02 5.786968977190554142e-04 -3.219485282897949219e-03
-3.260801360011100769e-02 9.202945046126842499e-03 7.596015930175781250e-03
4.325503855943679810e-02 -2.771580964326858521e-02 2.404034137725830078e-02
2.604145091027021408e-03 1.349546597339212894e-03 -6.066441535949707031e-03
1.651341281831264496e-02 2.448376640677452087e-02 -3.002345561981201172e-03
-3.531694412231445312e-03 -3.314704075455665588e-02 -6.398379802703857422e-03
-2.608413062989711761e-02 3.244157880544662476e-02 1.595675945281982422e-03
2.202365547418594360e-02 5.867355689406394958e-02 -3.838539123535156250e-04
-2.448896132409572601e-02 -4.830498248338699341e-02 5.142688751220703125e-04
1.651473529636859894e-02 -1.253193803131580353e-02 -2.962827682495117188e-03
-1.663611829280853271e-02 -1.945697702467441559e-02 -3.396987915039062500e-03
1.963948272168636322e-02 -1.332932058721780777e-02 -1.933991909027099609e-03
-9.677859023213386536e-03 -2.490873448550701141e-03 -5.283892154693603516e-03
4.141279961913824081e-03 8.255930617451667786e-03 -5.812346935272216797e-03
-5.833559669554233551e-03 -4.314306750893592834e-02 -6.007850170135498047e-03
8.748287335038185120e-03 -5.544985085725784302e-02 -5.675435066223144531e-03
3.681859746575355530e-02 3.776655346155166626e-02 1.232397556304931641e-02
2.681836299598217010e-02 -8.771113120019435883e-03 2.499938011169433594e-03
6.442778278142213821e-03 3.280981257557868958e-02 -5.851447582244873047e-03
-9.677859023213386536e-03 -3.258957061916589737e-03 -5.283892154693603516e-03
3.681859746575355530e-02 -4.773424565792083740e-02 1.232397556304931641e-02
-1.044830679893493652e-02 -3.091990202665328979e-02 -5.107522010803222656e-03
-4.310467466711997986e-02 -3.818323463201522827e-02 2.360773086547851562e-02
8.749468252062797546e-03 -3.089125081896781921e-02 -5.616724491119384766e-03
4.141279961913824081e-03 1.055805757641792297e-02 -5.812346935272216797e-03
2.361659519374370575e-02 -5.633844994008541107e-03 5.742311477661132812e-04
2.361750788986682892e-02 1.919660717248916626e-02 5.942583084106445312e-04
-1.741677522659301758e-02 -5.031688138842582703e-02 -3.002345561981201172e-03
1.184596493840217590e-02 -1.479952875524759293e-02 -4.597425460815429688e-03
-2.765103708952665329e-03 -1.091548707336187363e-02 -6.417930126190185547e-03
2.043198794126510620e-02 2.763958275318145752e-02 -1.438081264495849609e-03
1.964102312922477722e-02 3.843554481863975525e-02 -1.894354820251464844e-03
-1.819850690662860870e-02 -3.800563141703605652e-02 -2.607107162475585938e-03
-3.495132550597190857e-02 4.176945239305496216e-02 -1.988905668258666992e-02
2.202109247446060181e-02 9.095233865082263947e-03 -4.436373710632324219e-04
-5.065739154815673828e-03 2.128838561475276947e-02 -6.183683872222900391e-03
-4.514263942837715149e-02 5.676632747054100037e-02 2.969938516616821289e-02
3.256654366850852966e-02 1.155646704137325287e-02 7.452666759490966797e-03
-3.531720489263534546e-03 2.511467039585113525e-02 -6.378889083862304688e-03
-1.231869915500283241e-03 2.281481958925724030e-02 -6.378889083862304688e-03
-2.055076509714126587e-02 5.779969319701194763e-02 -1.398324966430664062e-03
-2.055015228688716888e-02 -3.190075978636741638e-02 -1.418232917785644531e-03
-2.291013672947883606e-02 -1.724586822092533112e-02 -2.642869949340820312e-04
-4.412673041224479675e-02 -2.784690074622631073e-02 2.675831317901611328e-02
3.006773814558982849e-02 -6.467797327786684036e-03 4.904925823211669922e-03
-2.291152440011501312e-02 -2.001781249418854713e-04 -2.244114875793457031e-04
1.836323644965887070e-03 5.184069741517305374e-03 -6.164133548736572266e-03
2.442162297666072845e-02 -1.806954480707645416e-02 1.194715499877929688e-03
-1.976519264280796051e-02 -3.265063092112541199e-02 -1.815080642700195312e-03
-1.998486928641796112e-03 -2.854851260781288147e-02 -6.378889083862304688e-03
-3.766636922955513000e-02 2.197302132844924927e-02 1.347088813781738281e-02
4.234397411346435547e-02 -5.745336040854454041e-02 2.265816926956176758e-02
-3.942615538835525513e-02 -5.842390283942222595e-02 1.628392934799194336e-02
7.209080737084150314e-03 -5.696107447147369385e-02 -5.910098552703857422e-03
-4.310467466711997986e-02 -2.850173600018024445e-02 2.360773086547851562e-02
1.184596493840217590e-02 -1.556853298097848892e-02 -4.597425460815429688e-03
-2.608332410454750061e-02 2.000411972403526306e-02 1.575648784637451172e-03
3.947479650378227234e-02 -7.417226675897836685e-03 1.628392934799194336e-02
-4.029899463057518005e-02 -4.017730802297592163e-02 1.748865842819213867e-02
2.681836299598217010e-02 -3.368350863456726074e-02 2.499938011169433594e-03
-3.096147626638412476e-02 -2.997975796461105347e-02 6.023168563842773438e-03
1.807857863605022430e-02 5.461673066020011902e-02 -2.369701862335205078e-03
1.731210574507713318e-02 6.158117577433586121e-02 -2.211332321166992188e-03
3.512714430689811707e-02 3.134757652878761292e-02 1.064294576644897461e-02
-2.581865340471267700e-02 4.591973870992660522e-02 -5.009472370147705078e-03
-2.369793504476547241e-02 3.468701615929603577e-02 9.477138519287109375e-05
-3.531694412231445312e-03 -3.468022122979164124e-02 -6.398379802703857422e-03
-2.055015228688716888e-02 -5.045907571911811829e-02 -1.418232917785644531e-03
2.043677680194377899e-02 -4.350741952657699585e-02 -1.318931579589843750e-03
-3.260801360011100769e-02 5.642068572342395782e-04 7.596015930175781250e-03
-1.198999211192131042e-02 -2.494156826287508011e-03 -4.793703556060791016e-03
-3.593480214476585388e-02 -1.809472101740539074e-03 1.089137792587280273e-02
-8.138936944305896759e-03 2.284487895667552948e-02 -5.577623844146728516e-03
3.089044243097305298e-02 1.935135014355182648e-02 5.616068840026855469e-03
3.089395910501480103e-02 5.379506573081016541e-02 5.677103996276855469e-03
-1.044830679893493652e-02 -5.565335974097251892e-03 -5.107522010803222656e-03
-4.370041936635971069e-02 2.739929035305976868e-02 -2.305257320404052734e-02
4.134874790906906128e-02 -5.158707499504089355e-02 2.008360624313354492e-02
-2.608413062989711761e-02 -3.129708766937255859e-02 1.595675945281982422e-03
-1.998565159738063812e-03 5.194108933210372925e-02 -6.437420845031738281e-03
-8.138936944305896759e-03 4.817866533994674683e-02 -5.577623844146728516e-03
-2.769995480775833130e-02 -3.683194518089294434e-02 3.023743629455566406e-03
4.908655770123004913e-03 2.116922521963715553e-03 -5.812346935272216797e-03
1.068896614015102386e-03 -3.392325714230537415e-02 -6.242215633392333984e-03
1.106891781091690063e-02 5.668563023209571838e-02 -4.931032657623291016e-03
6.443093065172433853e-03 -2.167094871401786804e-02 -5.831897258758544922e-03
-4.298494197428226471e-03 -1.858453266322612762e-02 -6.320357322692871094e-03
7.979625836014747620e-03 5.046831071376800537e-02 -5.734145641326904297e-03
-1.276180893182754517e-02 5.287103354930877686e-02 -4.617035388946533203e-03
1.417558081448078156e-02 -1.636117137968540192e-02 -3.830492496490478516e-03
3.857959806919097900e-02 -5.192152038216590881e-02 1.487404108047485352e-02
-1.741677522659301758e-02 -4.106319323182106018e-02 -3.002345561981201172e-03
4.229552671313285828e-02 -1.554818917065858841e-02 2.201247215270996094e-02
1.651870645582675934e-02 5.071609839797019958e-02 -2.844274044036865234e-03
4.449186846613883972e-02 -2.879714407026767731e-02 2.956706285476684570e-02
-5.065739154815673828e-03 1.668711565434932709e-02 -6.183683872222900391e-03
1.262076012790203094e-02 2.673622220754623413e-02 -4.381299018859863281e-03
3.342881426215171814e-02 -1.517376210540533066e-02 8.704066276550292969e-03
2.441786415874958038e-02 5.027888715267181396e-02 1.114547252655029297e-03
1.029857434332370758e-02 -3.860993683338165283e-02 -5.009472370147705078e-03
1.185146719217300415e-02 -4.865450784564018250e-02 -4.381299018859863281e-03
-3.788340836763381958e-02 4.618142545223236084e-02 -2.087342739105224609e-02
1.964102312922477722e-02 3.766292333602905273e-02 -1.894354820251464844e-03
-3.096147626638412476e-02 1.153156999498605728e-02 6.023168563842773438e-03
-2.932652086019515991e-02 4.474419169127941132e-03 4.519581794738769531e-03
-3.096147626638412476e-02 5.265709478408098221e-03 6.023168563842773438e-03
-4.298494197428226471e-03 -1.838441239669919014e-04 -6.320357322692871094e-03
-1.976519264280796051e-02 -4.424159601330757141e-02 -1.815080642700195312e-03
-3.827292844653129578e-02 5.045610666275024414e-02 -1.468741893768310547e-02
1.495471782982349396e-02 -4.410564526915550232e-02 -3.534972667694091797e-03
3.172477334737777710e-02 4.994891956448554993e-02 6.492137908935546875e-03
-1.976519264280796051e-02 -4.810525476932525635e-02 -1.815080642700195312e-03
-4.421946778893470764e-02 6.068619340658187866e-02 2.811557054519653320e-02
7.979260757565498352e-03 1.593118160963058472e-02 -5.753695964813232422e-03
-4.310612380504608154e-02 5.621333047747612000e-02 2.362936735153198242e-02
3.006773814558982849e-02 9.948625229299068451e-03 4.904925823211669922e-03
1.729487441480159760e-02 -2.565427310764789581e-02 -2.705991268157958984e-03
-2.851487509906291962e-02 3.334168344736099243e-02 3.831326961517333984e-03
4.135031998157501221e-02 7.766334805637598038e-03 2.010494470596313477e-02
4.324347153306007385e-02 4.655095934867858887e-02 2.388888597488403320e-02
-4.064803570508956909e-02 9.520376101136207581e-03 -2.415412664413452148e-02
-1.199030689895153046e-02 2.518132142722606659e-02 -4.774093627929687500e-03
-2.291083149611949921e-02 1.297208294272422791e-02 -2.443194389343261719e-04
-1.044830679893493652e-02 1.825259067118167877e-02 -5.107522010803222656e-03
2.762108296155929565e-02 -4.461929947137832642e-02 2.963244915008544922e-03
3.259247913956642151e-02 -2.929369360208511353e-02 7.882893085479736328e-03
2.521676011383533478e-02 2.777686156332492828e-02 1.575648784637451172e-03
1.810509897768497467e-02 -5.971512198448181152e-02 -1.636564731597900391e-03
-9.677859023213386536e-03 -5.563209298998117447e-03 -5.283892154693603516e-03
-2.290944196283817291e-02 3.776431456208229065e-02 -2.841949462890625000e-04
-7.369987666606903076e-03 2.437396906316280365e-02 -5.734145641326904297e-03
1.885799132287502289e-02 4.073446989059448242e-02 -2.171754837036132812e-03
4.141044337302446365e-03 -2.090359665453433990e-02 -5.831897258758544922e-03
-1.508053764700889587e-02 -2.482075244188308716e-02 -4.066705703735351562e-03
3.771291673183441162e-02 5.849499627947807312e-02 1.382631063461303711e-02
4.135031998157501221e-02 -2.752600237727165222e-02 2.010494470596313477e-02
1.807571575045585632e-02 -3.724456205964088440e-02 -2.448856830596923828e-03
-1.998486928641796112e-03 -4.081438854336738586e-02 -6.378889083862304688e-03
-8.908305317163467407e-03 4.588776081800460815e-02 -5.420982837677001953e-03
-1.507969573140144348e-02 2.136075682938098907e-02 -4.106044769287109375e-03
-2.765103708952665329e-03 -1.716711907647550106e-03 -6.417930126190185547e-03
3.255667164921760559e-02 4.138088971376419067e-02 7.288932800292968750e-03
3.512447699904441833e-02 6.085744127631187439e-03 1.060152053833007812e-02
-3.260801360011100769e-02 -6.503851618617773056e-03 7.596015930175781250e-03
-1.663611829280853271e-02 -2.870431728661060333e-02 -3.396987915039062500e-03
6.442778278142213821e-03 1.209207717329263687e-02 -5.851447582244873047e-03
-2.291083149611949921e-02 8.323068730533123016e-03 -2.443194389343261719e-04
3.006545454263687134e-02 2.636330574750900269e-02 4.864335060119628906e-03
-2.133555337786674500e-02 1.605115272104740143e-02 -1.040697097778320312e-03
-1.819797791540622711e-02 -2.565798163414001465e-02 -2.626895904541015625e-03
-3.569654747843742371e-02 -9.128640405833721161e-03 -1.994490623474121094e-02
-2.851398102939128876e-02 3.690353129059076309e-03 3.811120986938476562e-03
-2.452726848423480988e-02 6.119549646973609924e-02 1.535475254058837891e-03
-4.216495156288146973e-02 6.004728004336357117e-02 2.158278226852416992e-02
2.441974170506000519e-02 5.649594590067863464e-02 1.154601573944091797e-03
-2.770081721246242523e-02 2.316829562187194824e-02 3.043889999389648438e-03
1.886468008160591125e-02 -5.890484899282455444e-02 -1.993477344512939453e-03
-4.316848516464233398e-02 -5.844745784997940063e-02 2.456033229827880859e-02
-2.932836674153804779e-02 3.416298702359199524e-02 4.560112953186035156e-03
-8.139120414853096008e-03 -5.085518956184387207e-02 -5.558013916015625000e-03
3.512581437826156616e-02 -3.338379785418510437e-02 1.062226295471191406e-02
-3.178616985678672791e-02 5.860732868313789368e-02 6.859600543975830078e-03
-1.199030689895153046e-02 1.749365217983722687e-02 -4.774093627929687500e-03
-5.065739154815673828e-03 -2.484845928847789764e-03 -6.183683872222900391e-03
2.521676011383533478e-02 -4.606417194008827209e-02 1.575648784637451172e-03
-3.343407064676284790e-02 -5.527008697390556335e-02 8.375287055969238281e-03
-4.064929112792015076e-02 3.626242652535438538e-02 -2.413576841354370117e-02
-2.291013672947883606e-02 -4.591380432248115540e-02 -2.642869949340820312e-04
4.229714348912239075e-02 2.227130346000194550e-02 2.203398942947387695e-02
2.601592801511287689e-02 -2.354215644299983978e-02 2.017319202423095703e-03
-8.908305317163467407e-03 1.977915130555629730e-02 -5.420982837677001953e-03
1.417383924126625061e-02 1.212887465953826904e-02 -3.889560699462890625e-03
1.417732238769531250e-02 -3.561574593186378479e-02 -3.771424293518066406e-03
-1.585697941482067108e-02 -2.483420446515083313e-02 -3.771424293518066406e-03
2.521676011383533478e-02 1.456320472061634064e-02 1.575648784637451172e-03
2.362752892076969147e-02 -4.056816920638084412e-02 8.142590522766113281e-04
7.978893816471099854e-03 -3.395215794444084167e-02 -5.773246288299560547e-03
1.495471782982349396e-02 3.370748087763786316e-02 -3.534972667694091797e-03
2.604085020720958710e-02 6.051853299140930176e-02 2.520084381103515625e-03
3.512581437826156616e-02 1.082227658480405807e-02 1.062226295471191406e-02
2.362752892076969147e-02 -3.901565819978713989e-02 8.142590522766113281e-04
4.042031243443489075e-02 -5.063289403915405273e-02 1.833695173263549805e-02
1.068896614015102386e-03 -5.232645571231842041e-02 -6.242215633392333984e-03
4.138813540339469910e-02 4.630556702613830566e-02 2.061814069747924805e-02
2.122668363153934479e-02 -2.573795616626739502e-02 -9.213685989379882812e-04
2.521966211497783661e-02 4.099462553858757019e-02 1.635789871215820312e-03
-1.998565159738063812e-03 2.664531767368316650e-02 -6.437420845031738281e-03
2.521676011383533478e-02 -2.196867391467094421e-02 1.575648784637451172e-03
4.138655588030815125e-02 5.031775310635566711e-02 2.059674263000488281e-02
-4.369229078292846680e-02 8.790853433310985565e-03 -2.316290140151977539e-02
-4.298494197428226471e-03 3.891761973500251770e-02 -6.320357322692871094e-03
5.675456020981073380e-03 3.664642944931983948e-02 -5.851447582244873047e-03
8.749468252062797546e-03 3.205506876111030579e-02 -5.616724491119384766e-03
6.443093065172433853e-03 -3.625059500336647034e-02 -5.831897258758544922e-03
-2.528502233326435089e-02 3.241150453686714172e-02 1.034438610076904297e-03
2.762213535606861115e-02 4.466186743229627609e-03 2.983391284942626953e-03
-1.976460963487625122e-02 -9.685674449428915977e-04 -1.834869384765625000e-03
-1.898131147027015686e-02 2.219895832240581512e-02 -2.211332321166992188e-03
-1.353373378515243530e-02 3.673218935728073120e-02 -4.459917545318603516e-03
4.908655770123004913e-03 -7.858963683247566223e-03 -5.812346935272216797e-03
-3.593713045120239258e-02 -5.077793076634407043e-02 1.093280315399169922e-02
3.949877247214317322e-02 -4.091433063149452209e-02 1.662158966064453125e-02
-3.531720489263534546e-03 4.887979477643966675e-02 -6.378889083862304688e-03
3.427658230066299438e-02 -9.684146381914615631e-03 9.671926498413085938e-03
-1.585742644965648651e-02 2.445364557206630707e-02 -3.751754760742187500e-03
1.106986403465270996e-02 7.498420309275388718e-03 -4.891812801361083984e-03
-6.601459812372922897e-03 5.659307539463043213e-02 -5.890548229217529297e-03
-4.412822797894477844e-02 -3.758045285940170288e-02 2.678018808364868164e-02
2.521676011383533478e-02 -2.352322079241275787e-02 1.575648784637451172e-03
2.282388135790824890e-02 -2.191316708922386169e-02 1.946091651916503906e-04
-2.851844951510429382e-02 5.987987294793128967e-02 3.912210464477539062e-03
-1.976519264280796051e-02 -5.737803131341934204e-02 -1.815080642700195312e-03
-2.932744286954402924e-02 8.380754850804805756e-03 4.539847373962402344e-03
2.601592801511287689e-02 -2.509788796305656433e-02 2.017319202423095703e-03
-4.211286827921867371e-02 -3.237710520625114441e-02 2.078938484191894531e-02
-4.413121193647384644e-02 -4.893866926431655884e-02 2.682387828826904297e-02
-5.065739154815673828e-03 3.892659395933151245e-02 -6.183683872222900391e-03
-3.941575810313224792e-02 5.712228268384933472e-02 1.611524820327758789e-02
-3.509506583213806152e-02 5.418143793940544128e-02 9.981453418731689453e-03
1.573592424392700195e-02 -2.871462702751159668e-02 -3.199696540832519531e-03
-3.593713045120239258e-02 -4.603906720876693726e-02 1.093280315399169922e-02
1.495471782982349396e-02 2.890400588512420654e-03 -3.534972667694091797e-03
3.172837942838668823e-02 -1.903296820819377899e-02 6.553351879119873047e-03
2.043198794126510620e-02 7.535437121987342834e-03 -1.438081264495849609e-03
3.512581437826156616e-02 -1.759591326117515564e-02 1.062226295471191406e-02
1.573338545858860016e-02 1.291110366582870483e-02 -3.278672695159912109e-03
-2.690316736698150635e-02 5.974808335304260254e-02 2.600610256195068359e-03
-2.133619226515293121e-02 -5.614612717181444168e-03 -1.020789146423339844e-03
7.210102397948503494e-03 -2.013551443815231323e-02 -5.851447582244873047e-03
-3.632430732250213623e-02 -1.419734908267855644e-04 -2.194666862487792969e-02
-3.593596443533897400e-02 -2.076436206698417664e-02 1.091206073760986328e-02
2.924815192818641663e-02 3.414361178874969482e-02 4.215776920318603516e-03
3.102339431643486023e-02 -5.994121730327606201e-02 7.923901081085205078e-03
-3.531694412231445312e-03 5.829557776451110840e-04 -6.398379802703857422e-03
3.006659448146820068e-02 1.776539534330368042e-02 4.884600639343261719e-03
4.445249959826469421e-02 2.977739786729216576e-03 2.906042337417602539e-02
-3.096049651503562927e-02 -3.389469161629676819e-02 6.002843379974365234e-03
2.681836299598217010e-02 6.020619999617338181e-03 2.499938011169433594e-03
-2.528346516191959381e-02 -1.883932948112487793e-02 9.943842887878417969e-04
2.202280238270759583e-02 4.472838342189788818e-02 -4.037618637084960938e-04
2.521579153835773468e-02 -5.461224541068077087e-02 1.555562019348144531e-03
3.856351971626281738e-02 3.473035991191864014e-02 1.464325189590454102e-02
8.749073371291160583e-03 4.419993609189987183e-03 -5.636334419250488281e-03
-3.509506583213806152e-02 -3.413455560803413391e-02 9.981453418731689453e-03
-3.096049651503562927e-02 1.858006231486797333e-02 6.002843379974365234e-03
-3.083790279924869537e-02 -1.306621450930833817e-02 -1.227003335952758789e-02
-4.292289912700653076e-02 7.298849057406187057e-03 -2.351206541061401367e-02
-5.065739154815673828e-03 5.349728092551231384e-02 -6.183683872222900391e-03
-1.902880333364009857e-02 -5.983294919133186340e-02 -5.233287811279296875e-04
3.006659448146820068e-02 2.167393080890178680e-02 4.884600639343261719e-03
1.807500049471855164e-02 -1.717498898506164551e-02 -2.468645572662353516e-03
2.441504597663879395e-02 5.729708936996757984e-04 1.054465770721435547e-03
-2.448896132409572601e-02 -5.528765544295310974e-02 5.142688751220703125e-04
4.135189577937126160e-02 -3.463216591626405716e-03 2.012634277343750000e-02
-3.531720489263534546e-03 2.588128671050071716e-02 -6.378889083862304688e-03
1.262128725647926331e-02 6.734783295542001724e-03 -4.361629486083984375e-03
5.675456020981073380e-03 3.587910532951354980e-02 -5.851447582244873047e-03
3.341867774724960327e-02 2.258785255253314972e-02 8.539617061614990234e-03
9.520461782813072205e-03 -3.257540054619312286e-03 -5.460143089294433594e-03
3.428307175636291504e-02 1.159691531211137772e-02 9.775042533874511719e-03
-1.663659512996673584e-02 -1.098066661506891251e-02 -3.377258777618408203e-03
1.068896614015102386e-03 -2.012085542082786560e-02 -6.242215633392333984e-03
-3.773345053195953369e-02 1.697370223701000214e-02 -2.325487136840820312e-02
-5.065817385911941528e-03 -7.086405064910650253e-03 -6.164133548736572266e-03
-2.528502233326435089e-02 3.396460041403770447e-02 1.034438610076904297e-03
5.676320288330316544e-03 -4.622938856482505798e-02 -5.792796611785888672e-03
-2.851577103137969971e-02 -4.625017195940017700e-02 3.851592540740966797e-03
-3.773229569196701050e-02 3.259682282805442810e-02 -2.327322959899902344e-02
4.578178003430366516e-02 5.463689565658569336e-03 3.557807207107543945e-02
-2.528346516191959381e-02 1.687945239245891571e-02 9.943842887878417969e-04
-3.520628064870834351e-02 5.038852989673614502e-02 -1.546341180801391602e-02
-1.741778105497360229e-02 3.682445362210273743e-02 -2.962827682495117188e-03
2.681836299598217010e-02 -4.100039601325988770e-03 2.499938011169433594e-03
-4.298494197428226471e-03 -4.388547688722610474e-02 -6.320357322692871094e-03
-2.688979730010032654e-02 1.769207976758480072e-02 2.278685569763183594e-03
1.729487441480159760e-02 -1.330966874957084656e-02 -2.705991268157958984e-03
-4.292156919836997986e-02 1.994050107896327972e-02 -2.353042364120483398e-02
-9.678095579147338867e-03 5.818970501422882080e-02 -5.264282226562500000e-03
-1.977747678756713867e-02 6.089284271001815796e-02 -1.398324966430664062e-03
9.522140026092529297e-03 -3.320832550525665283e-02 -5.381822586059570312e-03
-1.430608145892620087e-02 -1.728047500364482403e-03 -4.302680492401123047e-03
1.964025199413299561e-02 2.530009858310222626e-02 -1.914203166961669922e-03
4.042185097932815552e-02 -4.023788869380950928e-02 1.835823059082031250e-02
-5.065739154815673828e-03 2.282214350998401642e-02 -6.183683872222900391e-03
7.978893816471099854e-03 -9.527382208034396172e-04 -5.773246288299560547e-03
4.141279961913824081e-03 3.651674371212720871e-03 -5.812346935272216797e-03
-2.765103708952665329e-03 4.810839891433715820e-02 -6.437420845031738281e-03
-2.133683115243911743e-02 -5.513946339488029480e-02 -1.000940799713134766e-03
1.964102312922477722e-02 -4.114483669400215149e-02 -1.894354820251464844e-03
-2.932744286954402924e-02 7.599508389830589294e-03 4.539847373962402344e-03
6.443093065172433853e-03 -3.394854441285133362e-02 -5.831897258758544922e-03
-2.851398102939128876e-02 -2.908094227313995361e-02 3.811120986938476562e-03
3.599416464567184448e-02 -5.876686424016952515e-02 1.182490587234497070e-02
-1.199030689895153046e-02 2.133748680353164673e-02 -4.774093627929687500e-03
4.450729116797447205e-02 4.943697899580001831e-02 2.976554632186889648e-02
4.324842989444732666e-02 1.507288217544555664e-02 2.395379543304443359e-02
1.963948272168636322e-02 2.894690493121743202e-03 -1.933991909027099609e-03
-4.118220508098602295e-02 5.577377974987030029e-02 1.880455017089843750e-02
-1.198999211192131042e-02 -2.171267569065093994e-02 -4.793703556060791016e-03
6.442464422434568405e-03 5.275847390294075012e-02 -5.870997905731201172e-03
1.107033528387546539e-02 -2.555269747972488403e-02 -4.872202873229980469e-03
1.262497343122959137e-02 -4.559019207954406738e-02 -4.224061965942382812e-03
-2.864998206496238708e-02 -1.083157118409872055e-02 -1.033264398574829102e-02
3.428437188267707825e-02 2.657472155988216400e-02 9.795665740966796875e-03
1.807571575045585632e-02 2.450601197779178619e-02 -2.448856830596923828e-03
-3.930250182747840881e-02 4.459789022803306580e-02 -2.202051877975463867e-02
-4.514110460877418518e-02 -2.798768691718578339e-02 2.967733144760131836e-02
3.428307175636291504e-02 1.632646843791007996e-02 9.775042533874511719e-03
-2.369793504476547241e-02 -2.656089514493942261e-02 9.477138519287109375e-05
-7.369987666606903076e-03 5.967808142304420471e-02 -5.734145641326904297e-03
4.134874790906906128e-02 -4.918085783720016479e-02 2.008360624313354492e-02
3.428567573428153992e-02 2.815223671495914459e-02 9.816348552703857422e-03
3.856059536337852478e-02 5.548215704038739204e-04 1.460129022598266602e-02
-2.055015228688716888e-02 -2.726118452847003937e-02 -1.418232917785644531e-03
2.043198794126510620e-02 -2.262078225612640381e-02 -1.438081264495849609e-03
-1.276146806776523590e-02 -2.095003612339496613e-02 -4.636645317077636719e-03
1.106891781091690063e-02 3.439748287200927734e-02 -4.931032657623291016e-03
2.603778615593910217e-03 5.887328088283538818e-02 -6.105542182922363281e-03
-3.844203054904937744e-02 2.736397460103034973e-02 -2.380573749542236328e-02
5.675743799656629562e-03 1.976593956351280212e-02 -5.831897258758544922e-03
4.324347153306007385e-02 4.735812172293663025e-02 2.388888597488403320e-02
-2.864296920597553253e-02 4.701636731624603271e-02 -1.048660278320312500e-02
-4.298494197428226471e-03 2.895057946443557739e-02 -6.320357322692871094e-03
-5.066838581115007401e-03 -5.849556252360343933e-02 -5.910098552703857422e-03
-7.370145060122013092e-03 -3.165325149893760681e-02 -5.714595317840576172e-03
3.258012235164642334e-02 6.062243133783340454e-03 7.677912712097167969e-03
1.836166717112064362e-03 -2.395744435489177704e-02 -6.183683872222900391e-03
3.260236978530883789e-02 -3.401792794466018677e-02 8.046925067901611328e-03
1.885724999010562897e-02 1.911076530814170837e-02 -2.191543579101562500e-03
-3.426453843712806702e-02 5.411110073328018188e-02 9.197890758514404297e-03
2.521676011383533478e-02 -1.963685266673564911e-02 1.575648784637451172e-03
-6.601590663194656372e-03 5.822492530569434166e-04 -5.870997905731201172e-03
3.018868155777454376e-04 -4.772230237722396851e-02 -6.281316280364990234e-03
7.978526875376701355e-03 -3.548575565218925476e-02 -5.792796611785888672e-03
-3.096147626638412476e-02 1.544773299247026443e-02 6.023168563842773438e-03
1.807500049471855164e-02 -4.825298674404621124e-03 -2.468645572662353516e-03
-2.528346516191959381e-02 -4.446366801857948303e-02 9.943842887878417969e-04
-1.585697941482067108e-02 -4.485707357525825500e-02 -3.771424293518066406e-03
-4.211286827921867371e-02 -2.836202830076217651e-02 2.078938484191894531e-02
-3.260801360011100769e-02 -3.870277851819992065e-02 7.596015930175781250e-03
-2.212331816554069519e-02 2.898203674703836441e-03 -6.228685379028320312e-04
3.681720420718193054e-02 1.718246936798095703e-02 1.230317354202270508e-02
8.749073371291160583e-03 2.668073587119579315e-02 -5.636334419250488281e-03
1.417732238769531250e-02 4.678604751825332642e-02 -3.771424293518066406e-03
-1.509742997586727142e-02 -5.954132229089736938e-02 -3.278672695159912109e-03
1.184496656060218811e-02 5.210031941533088684e-02 -4.636645317077636719e-03
2.122668363153934479e-02 3.849811851978302002e-02 -9.213685989379882812e-04
4.138655588030815125e-02 4.951499402523040771e-02 2.059674263000488281e-02
-2.688812650740146637e-02 -2.121715061366558075e-02 2.238452434539794922e-03
-2.055076509714126587e-02 4.542705044150352478e-02 -1.398324966430664062e-03
-1.819956861436367035e-02 5.228327959775924683e-02 -2.567529678344726562e-03
1.885650679469108582e-02 -1.718326285481452942e-02 -2.211332321166992188e-03
-6.601590663194656372e-03 9.022520855069160461e-03 -5.870997905731201172e-03
2.601592801511287689e-02 -1.809709705412387848e-02 2.017319202423095703e-03
4.906822461634874344e-03 5.582021921873092651e-02 -5.949199199676513672e-03
-2.213866822421550751e-02 6.102011725306510925e-02 -1.645684242248535156e-04
9.523399174213409424e-03 -4.934053495526313782e-02 -5.323052406311035156e-03
-1.898186840116977692e-02 3.764421120285987854e-02 -2.191543579101562500e-03
-2.055015228688716888e-02 2.918701432645320892e-02 -1.418232917785644531e-03
-3.635327890515327454e-02 -6.114493124186992645e-03 -2.146607637405395508e-02
-1.276180893182754517e-02 3.364659473299980164e-02 -4.617035388946533203e-03
3.088809922337532043e-02 -2.134679816663265228e-02 5.575358867645263672e-03
4.042185097932815552e-02 -4.503643885254859924e-02 1.835823059082031250e-02
-3.260801360011100769e-02 -4.498549550771713257e-02 7.596015930175781250e-03
-3.632430732250213623e-02 -3.125013783574104309e-03 -2.194666862487792969e-02
4.141044337302446365e-03 2.667208947241306305e-02 -5.831897258758544922e-03
-3.853911533951759338e-02 5.858796462416648865e-02 1.479011774063110352e-02
-3.096147626638412476e-02 1.309803593903779984e-02 6.023168563842773438e-03
-1.121893897652626038e-02 2.286839857697486877e-02 -4.950642585754394531e-03
-8.138936944305896759e-03 2.668333053588867188e-02 -5.577623844146728516e-03
-3.096049651503562927e-02 1.936326920986175537e-02 6.002843379974365234e-03
3.006659448146820068e-02 2.480076067149639130e-02 4.884600639343261719e-03
-1.819850690662860870e-02 -1.937936758622527122e-04 -2.607107162475585938e-03
4.229552671313285828e-02 -2.359473332762718201e-02 2.201247215270996094e-02
-2.448746003210544586e-02 -2.347600273787975311e-02 4.742741584777832031e-04
3.341994434595108032e-02 5.562711507081985474e-02 8.560180664062500000e-03
-1.819850690662860870e-02 -5.035235732793807983e-02 -2.607107162475585938e-03
1.651209034025669098e-02 -5.339768156409263611e-02 -3.041803836822509766e-03
-8.908305317163467407e-03 -4.088497161865234375e-02 -5.420982837677001953e-03
-3.509506583213806152e-02 -5.384794622659683228e-02 9.981453418731689453e-03
1.807500049471855164e-02 -2.180612459778785706e-02 -2.468645572662353516e-03
-8.138936944305896759e-03 -3.549959138035774231e-02 -5.577623844146728516e-03
2.043198794126510620e-02 2.377340011298656464e-02 -1.438081264495849609e-03
-1.430647820234298706e-02 5.059273913502693176e-02 -4.283010959625244141e-03
4.909179639071226120e-03 -4.776586592197418213e-02 -5.773246288299560547e-03
3.341234847903251648e-02 -5.763543024659156799e-02 8.436918258666992188e-03
-6.601590663194656372e-03 -3.778261691331863403e-02 -5.870997905731201172e-03
-9.678805246949195862e-03 -5.703281611204147339e-02 -5.205512046813964844e-03
3.855621069669723511e-02 -3.043608367443084717e-02 1.453834772109985352e-02
-4.650177434086799622e-04 -4.784016404300928116e-03 -6.320357322692871094e-03
-3.990523517131805420e-02 8.034770376980304718e-03 -2.415412664413452148e-02
-2.739850617945194244e-02 5.292573571205139160e-02 -4.007637500762939453e-03
-2.133683115243911743e-02 6.016001850366592407e-02 -1.000940799713134766e-03
-7.369987666606903076e-03 5.186950322240591049e-03 -5.734145641326904297e-03
7.209761533886194229e-03 5.953330546617507935e-03 -5.870997905731201172e-03
-2.765103708952665329e-03 4.657531529664993286e-02 -6.437420845031738281e-03
-2.133619226515293121e-02 -2.031672559678554535e-02 -1.020789146423339844e-03
-1.508011668920516968e-02 -1.327453088015317917e-02 -4.086375236511230469e-03
2.603961620479822159e-03 2.435982786118984222e-02 -6.085991859436035156e-03
3.255790472030639648e-02 4.530706629157066345e-02 7.309377193450927734e-03
3.949877247214317322e-02 -4.888864979147911072e-02 1.662158966064453125e-02
-2.528268843889236450e-02 -3.436800092458724976e-02 9.743571281433105469e-04
2.442162297666072845e-02 -3.671187534928321838e-02 1.194715499877929688e-03
3.018868155777454376e-04 1.285076234489679337e-02 -6.281316280364990234e-03
3.429217264056205750e-02 5.496432632207870483e-02 9.919524192810058594e-03
7.209761533886194229e-03 2.897225320339202881e-02 -5.870997905731201172e-03
4.229391366243362427e-02 -4.049097001552581787e-02 2.199095487594604492e-02
-8.138936944305896759e-03 5.662325769662857056e-02 -5.577623844146728516e-03
-4.215576872229576111e-02 4.322427324950695038e-03 -2.384245395660400391e-02
-2.812487445771694183e-02 4.438430815935134888e-02 -4.989862442016601562e-03
-3.095852956175804138e-02 4.363968595862388611e-02 5.962073802947998047e-03
7.209761533886194229e-03 3.894712030887603760e-02 -5.870997905731201172e-03
-2.937074936926364899e-02 4.923970624804496765e-02 -1.119744777679443359e-02
-1.508011668920516968e-02 5.967676173895597458e-03 -4.086375236511230469e-03
1.029410958290100098e-02 3.668623790144920349e-02 -5.205512046813964844e-03
4.042338579893112183e-02 -2.104448527097702026e-02 1.837944984436035156e-02
-2.449196204543113708e-02 5.799457058310508728e-02 5.942583084106445312e-04
2.681836299598217010e-02 2.128058811649680138e-03 2.499938011169433594e-03
-3.564509004354476929e-02 -6.123178172856569290e-03 -2.081781625747680664e-02
2.202963829040527344e-02 -3.584256395697593689e-02 -2.443194389343261719e-04
-1.199030689895153046e-02 2.902515791356563568e-02 -4.774093627929687500e-03
-3.814924135804176331e-02 4.953220114111900330e-02 -1.665169000625610352e-02
-2.212198451161384583e-02 2.225497737526893616e-02 -6.626844406127929688e-04
-4.118084162473678589e-02 5.337085574865341187e-02 1.878333091735839844e-02
1.573592424392700195e-02 -2.100586518645286560e-02 -3.199696540832519531e-03
3.018868155777454376e-04 1.591775193810462952e-02 -6.281316280364990234e-03
-2.528580091893672943e-02 4.328463599085807800e-02 1.054465770721435547e-03
2.043198794126510620e-02 2.300016395747661591e-02 -1.438081264495849609e-03
3.947180137038230896e-02 1.888184808194637299e-02 1.624172925949096680e-02
-1.898131147027015686e-02 -4.828056786209344864e-03 -2.211332321166992188e-03
1.262128725647926331e-02 1.212002057582139969e-02 -4.361629486083984375e-03
-3.425902128219604492e-02 -5.848889797925949097e-02 9.094953536987304688e-03
-3.497277572751045227e-02 -8.387655951082706451e-03 -1.951670646667480469e-02
2.043597958981990814e-02 -4.195914044976234436e-02 -1.338779926300048828e-03
-3.854037821292877197e-02 -4.078577458858489990e-02 1.481109857559204102e-02
-3.694674372673034668e-02 -5.985942855477333069e-02 1.474815607070922852e-02
-1.353336684405803680e-02 -5.018428340554237366e-02 -4.479527473449707031e-03
-4.650177434086799622e-04 -4.618556797504425049e-02 -6.320357322692871094e-03
-3.343514353036880493e-02 2.808753214776515961e-02 8.395850658416748047e-03
-1.231869915500283241e-03 3.201422467827796936e-02 -6.378889083862304688e-03
2.043198794126510620e-02 -2.880667150020599365e-02 -1.438081264495849609e-03
-1.430608145892620087e-02 7.504734676331281662e-03 -4.302680492401123047e-03
-4.139722511172294617e-02 6.550024729222059250e-03 -2.406245470046997070e-02
-3.773114085197448730e-02 2.664412558078765869e-02 -2.329158782958984375e-02
-2.683895267546176910e-02 5.415669828653335571e-02 1.054465770721435547e-03
1.807571575045585632e-02 2.604977600276470184e-02 -2.448856830596923828e-03
-3.531694412231445312e-03 -2.394795231521129608e-02 -6.398379802703857422e-03
-5.065817385911941528e-03 -5.770210921764373779e-02 -6.164133548736572266e-03
1.029544696211814880e-02 -7.101398427039384842e-03 -5.146741867065429688e-03
-1.819850690662860870e-02 -1.737133949063718319e-03 -2.607107162475585938e-03
-1.819850690662860870e-02 3.664556890726089478e-03 -2.607107162475585938e-03
2.762213535606861115e-02 2.907866612076759338e-03 2.983391284942626953e-03
3.257147967815399170e-02 5.642891628667712212e-04 7.534563541412353516e-03
-4.298494197428226471e-03 4.581787437200546265e-02 -6.320357322692871094e-03
-1.998565159738063812e-03 4.350916668772697449e-02 -6.437420845031738281e-03
-2.608413062989711761e-02 -3.362898901104927063e-02 1.595675945281982422e-03
3.372436854988336563e-03 2.283093892037868500e-02 -5.949199199676513672e-03
-2.769995480775833130e-02 -3.293587267398834229e-02 3.023743629455566406e-03
-2.448746003210544586e-02 -3.123398870229721069e-02 4.742741584777832031e-04
-2.133619226515293121e-02 -4.817336052656173706e-02 -1.020789146423339844e-03
-2.528346516191959381e-02 1.066748891025781631e-02 9.943842887878417969e-04
-3.426343575119972229e-02 -4.747286438941955566e-02 9.177267551422119141e-03
6.443093065172433853e-03 4.418945405632257462e-03 -5.831897258758544922e-03
-1.819903776049613953e-02 3.376080468297004700e-02 -2.587318420410156250e-03
3.427397832274436951e-02 -1.014649984426796436e-03 9.630620479583740234e-03
-3.531694412231445312e-03 -3.084726631641387939e-02 -6.398379802703857422e-03
-5.065817385911941528e-03 -5.693520605564117432e-02 -6.164133548736572266e-03
1.262076012790203094e-02 5.289219319820404053e-02 -4.381299018859863281e-03
-4.064929112792015076e-02 3.403394296765327454e-02 -2.413576841354370117e-02
2.521676011383533478e-02 -8.755014277994632721e-03 1.575648784637451172e-03
2.924815192818641663e-02 3.648604452610015869e-02 4.215776920318603516e-03
7.209761533886194229e-03 3.741252422332763672e-02 -5.870997905731201172e-03
1.729487441480159760e-02 1.909491233527660370e-02 -2.705991268157958984e-03
-3.426453843712806702e-02 -5.737826693803071976e-03 9.197890758514404297e-03
3.596826270222663879e-02 -4.291715845465660095e-02 1.143038272857666016e-02
2.129710651934146881e-02 -5.997028574347496033e-02 7.742643356323242188e-04
1.029499992728233337e-02 7.495477795600891113e-03 -5.166351795196533203e-03
-3.178414702415466309e-02 2.958429045975208282e-02 6.818771362304687500e-03
-2.689898572862148285e-02 5.895945802330970764e-02 2.499938011169433594e-03
8.749073371291160583e-03 -1.856769667938351631e-04 -5.636334419250488281e-03
-5.833455361425876617e-03 -4.160737246274948120e-02 -6.027400493621826172e-03
1.029634103178977966e-02 -2.784662321209907532e-02 -5.107522010803222656e-03
3.857959806919097900e-02 5.939115211367607117e-02 1.487404108047485352e-02
-1.199030689895153046e-02 2.364378795027732849e-02 -4.774093627929687500e-03
-3.369738906621932983e-02 -1.298492681235074997e-02 -1.546341180801391602e-02
2.762213535606861115e-02 5.245346575975418091e-03 2.983391284942626953e-03
-2.765103708952665329e-03 2.204608730971813202e-02 -6.437420845031738281e-03
-4.298494197428226471e-03 -9.384187869727611542e-03 -6.320357322692871094e-03
-3.702800720930099487e-02 -2.374682109802961349e-03 -2.262914180755615234e-02
9.520461782813072205e-03 3.590269759297370911e-02 -5.460143089294433594e-03
-7.370145060122013092e-03 -3.242075815796852112e-02 -5.714595317840576172e-03
2.521676011383533478e-02 -3.751415386795997620e-02 1.575648784637451172e-03
1.729487441480159760e-02 -1.716735772788524628e-02 -2.705991268157958984e-03
-3.679869696497917175e-02 6.098419427871704102e-03 1.217830181121826172e-02
1.106891781091690063e-02 3.055470064282417297e-02 -4.931032657623291016e-03
-5.833559669554233551e-03 -5.618400499224662781e-02 -6.007850170135498047e-03
1.963948272168636322e-02 -2.646304666996002197e-02 -1.933991909027099609e-03
1.651870645582675934e-02 4.068851843476295471e-02 -2.844274044036865234e-03
-3.773345053195953369e-02 1.920572295784950256e-02 -2.325487136840820312e-02
-1.198999211192131042e-02 -4.554363712668418884e-02 -4.793703556060791016e-03
-1.430647820234298706e-02 4.212906211614608765e-02 -4.283010959625244141e-03
-1.663707010447978973e-02 2.909347973763942719e-02 -3.357529640197753906e-03
2.762213535606861115e-02 -6.442053709179162979e-03 2.983391284942626953e-03
-4.298494197428226471e-03 -8.617492392659187317e-03 -6.320357322692871094e-03
2.202536538243293762e-02 -2.499032765626907349e-02 -3.439784049987792969e-04
-5.833455361425876617e-03 -3.086814284324645996e-02 -6.027400493621826172e-03
-4.413121193647384644e-02 -5.137196183204650879e-02 2.682387828826904297e-02
-2.774238027632236481e-02 6.145111471414566040e-02 4.013359546661376953e-03
-2.133619226515293121e-02 3.152756765484809875e-02 -1.020789146423339844e-03
2.604145091027021408e-03 -8.621914312243461609e-03 -6.066441535949707031e-03
1.807500049471855164e-02 -2.720911428332328796e-02 -2.468645572662353516e-03
7.210102397948503494e-03 -2.627410367131233215e-02 -5.851447582244873047e-03
2.603961620479822159e-03 -1.475764904171228409e-02 -6.085991859436035156e-03
-4.298494197428226471e-03 -2.318470552563667297e-02 -6.320357322692871094e-03
-1.353373378515243530e-02 -5.710873007774353027e-02 -4.459917545318603516e-03
-3.773229569196701050e-02 -1.626384560950100422e-03 -2.327322959899902344e-02
1.029410958290100098e-02 4.052717983722686768e-02 -5.205512046813964844e-03
-6.601590663194656372e-03 -5.466316640377044678e-02 -5.870997905731201172e-03
3.172116354107856750e-02 2.564669027924537659e-02 6.430923938751220703e-03
-3.852599114179611206e-02 -6.845657248049974442e-03 -2.250015735626220703e-02
-4.413121193647384644e-02 -5.218306928873062134e-02 2.682387828826904297e-02
2.603778615593910217e-03 3.969870507717132568e-02 -6.105542182922363281e-03
2.924592420458793640e-02 -2.207315899431705475e-02 4.175245761871337891e-03
4.579244181513786316e-02 5.237612500786781311e-02 3.571295738220214844e-02
1.184696517884731293e-02 -2.710553631186485291e-02 -4.558145999908447266e-03
-2.055015228688716888e-02 2.609395980834960938e-02 -1.418232917785644531e-03
-1.044830679893493652e-02 -4.859126731753349304e-02 -5.107522010803222656e-03
2.601592801511287689e-02 -7.984841242432594299e-03 2.017319202423095703e-03
1.495654135942459106e-02 3.910435736179351807e-02 -3.475844860076904297e-03
-2.935725823044776917e-02 -1.004709117114543915e-02 -1.148515939712524414e-02
-1.231869915500283241e-03 7.482481654733419418e-03 -6.378889083862304688e-03
4.229230061173439026e-02 -5.175382271409034729e-02 2.196943759918212891e-02
9.521299973130226135e-03 -2.322326228022575378e-02 -5.420982837677001953e-03
3.260236978530883789e-02 -3.480387106537818909e-02 8.046925067901611328e-03
-8.138936944305896759e-03 -1.937809586524963379e-02 -5.577623844146728516e-03
5.676320288330316544e-03 -4.853159189224243164e-02 -5.792796611785888672e-03
3.513912484049797058e-02 4.872983694076538086e-02 1.082926988601684570e-02
3.596826270222663879e-02 -2.157428115606307983e-02 1.143038272857666016e-02
-3.509619832038879395e-02 1.002374291419982910e-02 1.000207662582397461e-02
-4.215707257390022278e-02 3.479555994272232056e-02 -2.382409572601318359e-02
-6.601459812372922897e-03 5.275671929121017456e-02 -5.890548229217529297e-03
-1.898186840116977692e-02 3.687198460102081299e-02 -2.191543579101562500e-03
7.209761533886194229e-03 2.884141169488430023e-03 -5.870997905731201172e-03
-4.369500279426574707e-02 1.846568472683429718e-02 -2.312612533569335938e-02
8.749468252062797546e-03 2.898451685905456543e-02 -5.616724491119384766e-03
5.675743799656629562e-03 1.746389083564281464e-02 -5.831897258758544922e-03
-8.138936944305896759e-03 -2.859037928283214569e-02 -5.577623844146728516e-03
1.651407405734062195e-02 1.985755562782287598e-02 -2.982556819915771484e-03
3.946880996227264404e-02 4.836465790867805481e-02 1.619958877563476562e-02
-1.898131147027015686e-02 -4.421027377247810364e-02 -2.211332321166992188e-03
1.068896614015102386e-03 1.285154838114976883e-02 -6.242215633392333984e-03
-2.133555337786674500e-02 5.757778417319059372e-04 -1.040697097778320312e-03
2.608362585306167603e-03 6.122530996799468994e-02 -5.616724491119384766e-03
2.763056568801403046e-02 5.045024305582046509e-02 3.144741058349609375e-03
-5.065739154815673828e-03 3.049092739820480347e-02 -6.183683872222900391e-03
-2.608413062989711761e-02 -3.518359363079071045e-02 1.595675945281982422e-03
-2.291083149611949921e-02 1.452175434678792953e-02 -2.443194389343261719e-04
2.603778615593910217e-03 4.046568274497985840e-02 -6.105542182922363281e-03
-2.054954133927822113e-02 -1.179547142237424850e-02 -1.438081264495849609e-03
-5.065817385911941528e-03 -4.389782622456550598e-02 -6.164133548736572266e-03
-3.260801360011100769e-02 6.846924778074026108e-03 7.596015930175781250e-03
-3.426453843712806702e-02 3.678640723228454590e-02 9.197890758514404297e-03
-1.430608145892620087e-02 -1.711601763963699341e-02 -4.302680492401123047e-03
-7.370145060122013092e-03 -2.551319636404514313e-02 -5.714595317840576172e-03
-6.601590663194656372e-03 -5.543046072125434875e-02 -5.870997905731201172e-03
3.258629888296127319e-02 -2.614598907530307770e-02 7.780373096466064453e-03
3.857521340250968933e-02 5.858999118208885193e-02 1.481109857559204102e-02
1.836323644965887070e-03 1.822144910693168640e-02 -6.164133548736572266e-03
1.963948272168636322e-02 5.984977819025516510e-03 -1.933991909027099609e-03
4.325669258832931519e-02 -3.336865454912185669e-02 2.406197786331176758e-02
-2.851398102939128876e-02 6.811429280787706375e-03 3.811120986938476562e-03
-4.118357598781585693e-02 -4.427238926291465759e-02 1.882582902908325195e-02
-4.298494197428226471e-03 -3.250625450164079666e-03 -6.320357322692871094e-03
4.229391366243362427e-02 -4.853722453117370605e-02 2.199095487594604492e-02
3.768292441964149475e-02 3.465968742966651917e-02 1.338732242584228516e-02
3.512581437826156616e-02 1.319045946002006531e-02 1.062226295471191406e-02
4.135031998157501221e-02 -4.116167128086090088e-02 2.010494470596313477e-02
1.339724287390708923e-02 3.444387763738632202e-02 -4.125714302062988281e-03
7.979260757565498352e-03 6.721728481352329254e-03 -5.753695964813232422e-03
3.768149763345718384e-02 5.314900074154138565e-03 1.336646080017089844e-02
4.232296720147132874e-02 5.529420822858810425e-02 2.237820625305175781e-02
-2.948551438748836517e-02 -1.468269806355237961e-02 -8.749961853027343750e-03
-2.369937859475612640e-02 -5.369983986020088196e-02 1.347064971923828125e-04
5.676320288330316544e-03 -1.937031373381614685e-02 -5.792796611785888672e-03
-1.231869915500283241e-03 3.661392629146575928e-02 -6.378889083862304688e-03
